# .PCD v0.7 - Point Cloud Data file format
VERSION 0.7
FIELDS x y z rgba
SIZE 4 4 4 4
TYPE F F F U
COUNT 1 1 1 1
WIDTH 1146
HEIGHT 1
VIEWPOINT 0 0 0 1 0 0 0
POINTS 1146
DATA ascii
-0.50768 -0.28069332 1.064 16316384
0.52539998 -0.26222667 0.99400002 722695
0.52381426 -0.25954765 0.99100006 853768
-0.49995047 -0.27352002 1.052 16447998
0.5222286 -0.25687999 0.98800004 788233
0.5222286 -0.25499812 0.98800004 788743
-0.48895332 -0.26464474 1.033 16711422
0.51800001 -0.25106665 0.98000002 854533
-0.48563999 -0.26089716 1.026 16711422
0.51800001 -0.2492 0.98000002 920071
-0.48422 -0.25818571 1.023 16711422
0.51377141 -0.2453143 0.97200006 920074
-0.48954856 -0.25698858 1.026 13022932
-0.48280007 -0.25548574 1.0200001 16711420
0.51218575 -0.24271144 0.96900004 919818
-0.48954856 -0.2550343 1.026 12823248
0.51059997 -0.24012001 0.96600002 1444874
-0.48095998 -0.24863999 1.008 12626637
0.50372863 -0.23507334 0.95300007 1969675
-0.48095998 -0.24672 1.008 12364745
0.50214285 -0.23252381 0.95000005 1446156
-0.48000571 -0.24431428 1.006 12168135
0.5010857 -0.23022859 0.94800007 920332
-0.52127999 -0.24288 1.008 8549742
-0.51936001 -0.24288 1.008 9404276
0.49950004 -0.22770001 0.94500005 591884
-0.50419718 -0.23833048 0.99700004 10455953
0.49506667 -0.22470477 0.94000006 459026
-0.50761902 -0.23714286 1 10586773
-0.50419718 -0.23643143 0.99700004 10587031
0.49348667 -0.22220285 0.93700004 3346709
-0.59320289 -0.23594382 1.003 3814196
-0.59129238 -0.23594382 1.003 4207670
-0.56746292 -0.22865143 0.97200006 4996928
-0.56561142 -0.22865143 0.97200006 4996927
-0.56376004 -0.22865143 0.97200006 5062978
-0.51678377 -0.23594382 1.003 9664379
-0.50799525 -0.23453239 0.99700004 10586778
0.49085331 -0.21924192 0.93200004 6309936
-0.59142858 -0.23333333 1 3814960
-0.58952379 -0.23333333 1 4274226
-0.58761907 -0.23333333 1 4734264
-0.57038194 -0.22796668 0.97700006 5128255
-0.56492001 -0.22726667 0.97400004 5260100
-0.53836286 -0.2247 0.96300006 6641760
-0.53652859 -0.2247 0.96300006 6773595
-0.51869428 -0.23403333 1.003 9074032
-0.51678377 -0.23403333 1.003 9335675
0.48822004 -0.2163 0.92700005 6445388
-0.5861057 -0.22934572 0.99100006 3880241
-0.57575721 -0.22749428 0.98300004 5062720
-0.57388479 -0.22749428 0.98300004 5259329
-0.56826764 -0.22749428 0.98300004 5523019
-0.56639528 -0.22749428 0.98300004 5654346
-0.56279999 -0.22679999 0.98000002 5720138
-0.56093335 -0.22679999 0.98000002 5786701
-0.53469431 -0.22286573 0.96300006 7363420
-0.52826858 -0.2217086 0.95800006 7495289
-0.52644384 -0.2217086 0.95800006 7233902
0.48295337 -0.21222001 0.91700006 6577491
-0.5861057 -0.2274581 0.99100006 4011314
-0.55735523 -0.22424477 0.97700006 6115154
-0.55549431 -0.22424477 0.97700006 6313041
-0.55363339 -0.22424477 0.97700006 6444625
-0.53618002 -0.22240858 0.96900004 8085612
-0.53268003 -0.22172 0.96600002 8283255
-0.45822862 -0.22309716 0.97200006 13482179
0.4808467 -0.20955524 0.91300005 6577243
-0.5861057 -0.22557048 0.99100006 4142902
-0.55346668 -0.22306667 0.98000002 6707542
-0.54973334 -0.22306667 0.98000002 7035996
-0.54786664 -0.22306667 0.98000002 7232863
-0.53819996 -0.21988 0.96600002 7495522
0.4808467 -0.2078162 0.91300005 6576987
-0.58433145 -0.22300571 0.98800004 4340025
-0.55159998 -0.2212 0.98000002 6904669
-0.54973334 -0.2212 0.98000002 7101789
0.47926667 -0.2054 0.91000003 6708315
-0.57960004 -0.21933334 0.98000002 4536377
-0.49148285 -0.21508096 0.96100003 10456207
0.47821334 -0.20321906 0.90800005 6905182
-0.57782573 -0.21680096 0.97700006 4470841
-0.52879715 -0.21502572 0.96900004 8616054
-0.52695143 -0.21502572 0.96900004 8878195
-0.5163514 -0.21369429 0.96300006 9534849
-0.51451719 -0.21369429 0.96300006 9666178
-0.49148285 -0.21325049 0.96100003 10456208
0.47663334 -0.20082381 0.90500003 6707809
-0.57486862 -0.21384001 0.97200006 4469561
-0.51527905 -0.21142001 0.96100003 9731461
-0.50819618 -0.21076001 0.95800006 9732233
-0.5063715 -0.21076001 0.95800006 9666693
-0.4917734 -0.21076001 0.95800006 10193798
-0.49148285 -0.21142001 0.96100003 10455952
0.47558004 -0.19866002 0.90300006 6576991
-0.57019335 -0.20958953 0.96100003 3746104
-0.56836283 -0.20958953 0.96100003 4468281
-0.49023333 -0.20828095 0.95500004 10259081
0.47294667 -0.19584954 0.89800006 6576734
-0.57019335 -0.20775905 0.96100003 3746104
-0.51480955 -0.20538096 0.95000005 9533569
0.46926001 -0.19262572 0.89100003 6511202
-0.57019335 -0.20592858 0.96100003 3876920
0.46388957 -0.18942858 0.88400006 6576740
-0.56841338 -0.20346096 0.95800006 4073528
0.46388957 -0.18774478 0.88400006 6642273
-0.56841338 -0.20163621 0.95800006 4073784
0.46284002 -0.18564001 0.88200003 6642271
-0.56663334 -0.19918571 0.95500004 4139820
-0.48813239 -0.19543143 0.93700004 10718348
0.4617905 -0.18354288 0.88000005 6642015
-0.56663334 -0.19736668 0.95500004 4073760
0.4617905 -0.18186668 0.88000005 6510944
-0.55773336 -0.1924762 0.94000006 4007713
0.46074095 -0.17978096 0.87800002 6445407
-0.55773336 -0.19068573 0.94000006 3942946
0.45811716 -0.1770943 0.87300003 6576735
-0.55595338 -0.18829238 0.93700004 3875358
-0.47031432 -0.18688573 0.93000007 10915487
0.45706764 -0.17502953 0.87100005 6773342
-0.55595338 -0.18650763 0.93700004 3875354
0.45391908 -0.17217621 0.86500007 6642270
-0.55595338 -0.18472287 0.93700004 3875352
0.45234481 -0.16993715 0.86200005 6576736
-0.55595338 -0.1829381 0.93700004 3809558
-0.54825431 -0.18098572 0.92700005 4009018
0.45024574 -0.16751429 0.85800004 6642529
-0.54825431 -0.17922001 0.92700005 3942459
-0.39729813 -0.17419334 0.90100002 16314098
0.45024574 -0.16588001 0.85800004 6774115
-0.54060954 -0.17611428 0.92000002 7432550
0.44919622 -0.16386287 0.85600007 6773861
-0.54234004 -0.17379335 0.91700006 3810876
0.44814667 -0.16185333 0.85400003 6773859
-0.53997427 -0.17129619 0.91300005 3549245
0.44709715 -0.15985143 0.85200006 6642785
-0.53997427 -0.16955714 0.91300005 3350842
0.44499812 -0.15748572 0.84800005 6577248
-0.53820002 -0.16726667 0.91000003 3414839
0.43867716 -0.15421619 0.83900005 6511711
-0.53820002 -0.16553333 0.91000003 3479606
0.43554005 -0.15152667 0.83300006 6446174
-0.53287715 -0.16218001 0.90100002 3347765
0.43449432 -0.14958 0.83100003 6511709
-0.53287715 -0.16046381 0.90100002 3216951
-0.52939242 -0.15992953 0.89800006 5199961
-0.42174003 -0.15868285 0.89100003 10982038
0.43449432 -0.14799714 0.83100003 6643034
-0.52821332 -0.15786667 0.89600003 5200218
0.43344861 -0.14606191 0.82900006 6643031
-0.52821332 -0.15616 0.89600003 5200476
-0.42145717 -0.15581143 0.89400005 8991357
0.43240285 -0.14413428 0.82700002 6643035
-0.52991998 -0.15445334 0.89600003 3020857
-0.52821332 -0.15445334 0.89600003 5134943
0.43240285 -0.14255904 0.82700002 6774111
-0.52991998 -0.15274666 0.89600003 3020344
0.43135715 -0.14064285 0.82500005 6839393
-0.50733048 -0.14648858 0.86900002 7233896
0.42926574 -0.13839714 0.82100004 6905188
0.4271743 -0.13616668 0.81700003 7037029
-0.47422573 -0.14317811 0.86900002 8416368
0.42560571 -0.13411619 0.81400001 6971750
-0.50829047 -0.14087144 0.86500007 7101262
-0.50664288 -0.14087144 0.86500007 7167575
-0.38174286 -0.14038286 0.86200005 15590377
0.42351431 -0.13191429 0.81000006 6906468
-0.50862855 -0.13841905 0.86000001 2363706
-0.50581145 -0.13809715 0.85800004 4738372
-0.50829047 -0.13922381 0.86500007 7167565
0.42246857 -0.13004953 0.80800003 6775139
-0.51309526 -0.13709906 0.86200005 3353635
-0.51145333 -0.13709906 0.86200005 2760489
-0.50862855 -0.13678095 0.86000001 2232378
0.42037714 -0.12787428 0.80400002 6709346
-0.51309526 -0.13545716 0.86200005 3616030
0.41780382 -0.12602857 0.80200005 6708835
-0.51190478 -0.13350476 0.86000001 3877668
0.4167619 -0.12419049 0.80000001 6774115
-0.51190478 -0.13186668 0.86000001 3615274
-0.4611505 -0.13002668 0.84800005 8349814
0.41519907 -0.12220667 0.79700005 6773859
-0.50833333 -0.12932001 0.85400003 3353131
0.41311526 -0.12008286 0.79300004 6773860
-0.5071429 -0.12739429 0.85200006 3615532
0.41207334 -0.11827333 0.79100001 6708581
-0.5071429 -0.12577143 0.85200006 3939880
0.41051048 -0.11632381 0.78800005 6708579
-0.5071429 -0.12414857 0.85200006 3549475
-0.50670666 -0.12444 0.85400003 2891826
0.40946859 -0.11453143 0.78600001 6708577
-0.50670666 -0.12281334 0.85400003 2695984
-0.50389719 -0.12252572 0.85200006 2234413
0.40842667 -0.11274667 0.78400004 6708323
-0.50271434 -0.12061905 0.85000002 2628653
0.40738478 -0.11096954 0.78200006 6774886
-0.50271434 -0.119 0.85000002 3088682
-0.49814761 -0.11830001 0.84500003 4071976
0.40738478 -0.10948001 0.78200006 6840422
-0.49814761 -0.11669048 0.84500003 3810340
0.40582195 -0.1075762 0.77900004 6840422
-0.48831141 -0.11317429 0.83100003 4993089
0.40478 -0.10582 0.77700001 6905957
-0.48517811 -0.11051714 0.82300001 3679550
-0.48713621 -0.11132286 0.82900006 4730693
0.40373811 -0.10407143 0.77500004 7037541
-0.48712668 -0.10868476 0.82100004 3025449
-0.48674572 -0.10894953 0.82300001 3221037
-0.48517811 -0.10894953 0.82300001 3810097
0.40217522 -0.10219809 0.77200001 7169128
-0.48712668 -0.10712095 0.82100004 3024939
0.40009144 -0.10020572 0.76800001 7169387
-0.48712668 -0.10555715 0.82100004 3024682
0.39499527 -0.097842865 0.76100004 7300719
-0.49226189 -0.10475334 0.82700002 2827555
-0.48831332 -0.10424667 0.82300001 3024682
-0.37042668 -0.10285334 0.81200004 12106946
0.3934381 -0.096013337 0.75800002 7234930
-0.49226189 -0.1031781 0.82700002 2827812
-0.48712668 -0.10242952 0.82100004 3024682
0.39240003 -0.094319999 0.75600004 7169393
-0.48712668 -0.10086571 0.82100004 2959146
-0.48438004 -0.10062001 0.81900007 3286312
-0.48046196 -0.10012858 0.81500006 3546407
-0.47832191 -0.10000572 0.81400001 3876671
0.39188099 -0.092757143 0.75500005 7498097
-0.47832191 -0.098455235 0.81400001 3876923
-0.47677144 -0.098455235 0.81400001 5265240
0.39084285 -0.091077149 0.75300002 7892593
-0.47677144 -0.096904762 0.81400001 5068121
-0.47288573 -0.096428581 0.81000006 6575961
0.39032382 -0.089523815 0.75200003 8024434
-0.47288573 -0.094885714 0.81000006 6444375
-0.46552381 -0.093714289 0.80000001 6313560
-0.35492 -0.093480006 0.79800004 15325918
-0.34840289 -0.09336286 0.79700005 16055037
0.39032382 -0.088091433 0.75200003 8221301
-0.46436003 -0.091960005 0.79800004 6181720
0.38824761 -0.086198099 0.74800003 8089976
-0.46179333 -0.089646667 0.79100001 6115661
0.3877286 -0.084660001 0.74700004 8024184
-0.46296099 -0.088362865 0.79300004 6115142
0.38565239 -0.082791425 0.74300003 7958392
-0.46296099 -0.086852387 0.79300004 6114892
0.38513336 -0.081266664 0.74200004 7958391
-0.46296099 -0.085341908 0.79300004 6114898
0.38253814 -0.079315245 0.73700005 7958647
-0.46296099 -0.083831429 0.79300004 6114897
0.38201907 -0.07780572 0.73600006 8024440
-0.46296099 -0.082320958 0.79300004 6114895
-0.45621336 -0.08138667 0.78400004 6114894
0.37994289 -0.075988576 0.73200005 8023929
-0.45388573 -0.079485722 0.78000003 6115149
0.3794238 -0.07449238 0.73100001 8089212
-0.45388573 -0.078000002 0.78000003 6049613
0.37838572 -0.072900005 0.72900003 8155776
-0.45097622 -0.07602381 0.77500004 6049611
0.37786669 -0.071413331 0.72800004 8288626
-0.45097622 -0.074547619 0.77500004 5984073
0.37786669 -0.070026673 0.72800004 4412005
-0.4512848 -0.072882861 0.77300006 5917251
-0.44981241 -0.072882861 0.77300006 5918536
0.37786669 -0.068640009 0.72800004 525110
-0.4512848 -0.071410477 0.77300006 5719867
0.37492859 -0.066976197 0.72500002 1311752
-0.4512848 -0.069938101 0.77300006 5588541
-0.34979999 -0.069666669 0.77000004 14402495
0.37337714 -0.065323815 0.72200006 1839629
-0.44369528 -0.06731429 0.76000005 5653823
0.37097144 -0.063771427 0.72000003 1906202
-0.44369528 -0.065866672 0.76000005 5784895
0.36891049 -0.06205333 0.71600002 1906458
-0.44427904 -0.064503811 0.76100004 5654079
0.36736479 -0.060435243 0.71300006 1906458
0.36872289 -0.060435243 0.71300006 1906198
-0.44427904 -0.063054286 0.76100004 5588285
-0.44108382 -0.062805712 0.75800002 5654855
0.3676886 -0.058911432 0.71100003 1971990
-0.44108382 -0.061361905 0.75800002 5720641
-0.43964002 -0.061361905 0.75800002 5721673
-0.43703145 -0.061604768 0.76100004 5984847
-0.43386477 -0.061361905 0.75800002 6116179
0.36561999 -0.057233334 0.70700002 2038039
-0.43386477 -0.059918094 0.75800002 6116177
-0.37150002 -0.058732383 0.74300003 11048857
0.3640686 -0.055649526 0.70400006 2103575
-0.43386477 -0.058474287 0.75800002 6115664
-0.42101717 -0.057702858 0.74800003 6642008
0.36355144 -0.054231428 0.70300001 1971992
-0.42214289 -0.056428574 0.75000006 6575961
0.36200002 -0.052666668 0.70000005 1840661
-0.42214289 -0.055000003 0.75000006 6575962
0.36096573 -0.05118667 0.69800001 1906194
0.36044857 -0.049785715 0.69700003 1971732
-0.42642382 -0.051795244 0.74500006 6116181
-0.36438286 -0.050474286 0.72600001 11047581
0.35941431 -0.048319053 0.69500005 2037526
-0.42642382 -0.050376195 0.74500006 6181458
-0.41286099 -0.049767621 0.73600006 6970459
0.35889715 -0.04692762 0.69400001 2103579
-0.42356193 -0.048628572 0.74000001 6246992
-0.33626667 -0.047840003 0.72800004 13415365
0.35838002 -0.045540001 0.69300002 2103840
-0.42298952 -0.047155239 0.73900002 6312529
0.35551432 -0.044028573 0.69000006 2103832
-0.42298952 -0.045747619 0.73900002 6312531
0.35396859 -0.042528573 0.68700004 2103829
-0.42184481 -0.044220004 0.73700005 6312530
0.35242286 -0.041040003 0.68400002 2103828
-0.42184481 -0.042816196 0.73700005 6575954
-0.41758859 -0.042525716 0.73200005 6575957
-0.41278285 -0.042177141 0.72600001 6575959
0.35139242 -0.039620955 0.68200004 2103828
-0.41221428 -0.040738095 0.72500002 6641752
0.35036191 -0.038209524 0.68000001 2104088
-0.41221428 -0.039357144 0.72500002 6576474
0.34933144 -0.036805719 0.67800003 2104092
-0.41221428 -0.03797619 0.72500002 6575962
-0.40743336 -0.037661906 0.71900004 6575963
0.34933144 -0.035514288 0.67800003 2103832
-0.40403336 -0.035989527 0.71300006 6510939
0.34830099 -0.034121908 0.67600006 2038293
-0.40709716 -0.034777146 0.71600002 6576216
-0.40460002 -0.034680001 0.71400005 6445656
0.34778574 -0.032785714 0.67500001 2039064
-0.40596002 -0.033320002 0.71400005 6576214
-0.34310004 -0.032900002 0.70500004 11375771
0.34624001 -0.03136 0.67200005 1973275
-0.40368575 -0.031780954 0.71000004 6576214
0.34520951 -0.029990477 0.67000002 1907483
-0.40368575 -0.030428572 0.71000004 6576471
0.34314856 -0.028542858 0.66600001 1972763
-0.40368575 -0.029076193 0.71000004 6576216
-0.39625144 -0.02883048 0.70400006 7036250
0.34263334 -0.027233334 0.66500002 2038043
-0.39568856 -0.027450476 0.70300001 7036251
0.34160286 -0.025888573 0.66300005 2169115
-0.39568856 -0.026111428 0.70300001 7102046
0.34160286 -0.024625717 0.66300005 2234907
-0.39231142 -0.024560954 0.69700003 7101793
0.34108764 -0.023327621 0.66200006 2300188
-0.3928743 -0.023266668 0.69800001 7101794
0.33880001 -0.022 0.66000003 2366232
-0.39819241 -0.021937143 0.69800001 6772830
-0.39363906 -0.021905715 0.69700003 7036518
-0.39231142 -0.021905715 0.69700003 7036259
0.33777335 -0.020680003 0.65800005 2432536
-0.39933336 -0.020666666 0.70000005 6772827
0.33726001 -0.019397143 0.65700001 2498330
-0.39933336 -0.019333335 0.70000005 6904153
-0.39800003 -0.019333335 0.70000005 7036509
0.33674666 -0.018118095 0.65600002 2564636
-0.39288288 -0.017768573 0.69100004 7232347
0.33623335 -0.016842859 0.65500003 2630177
-0.39288288 -0.016452381 0.69100004 7034969
0.33520669 -0.015547619 0.65300006 2630183
-0.39288288 -0.015136191 0.69100004 6838105
-0.39100003 -0.015114286 0.69000006 6772571
0.33294001 -0.014260001 0.65100002 2694947
-0.39100003 -0.013800002 0.69000006 6772572
-0.38968575 -0.013800002 0.69000006 6838110
0.33294001 -0.01302 0.65100002 2695715
0.32987145 -0.011671429 0.64500004 2695458
0.33110002 -0.011671429 0.64500004 2629922
-0.38144761 -0.011009524 0.68000001 7102306
0.3305867 -0.010426668 0.64400005 2564131
-0.38088667 -0.0097000003 0.67900002 7036000
0.3305867 -0.0092000002 0.64400005 2498083
-0.37824002 -0.008320001 0.67200005 6773596
-0.37696004 -0.008320001 0.67200005 6904415
0.32853335 -0.0079238098 0.64000005 2563620
-0.38094288 -0.0070190481 0.67000002 6510169
-0.37952003 -0.0070400005 0.67200005 6641756
-0.37824002 -0.0070400005 0.67200005 6708061
0.32853335 -0.0067047621 0.64000005 2629922
-0.38304859 -0.005717143 0.66700006 5984597
-0.38050765 -0.005717143 0.66700006 6247253
-0.37923717 -0.005717143 0.66700006 6313048
0.32596669 -0.0054428577 0.63500005 2630177
-0.38304859 -0.0044466672 0.66700006 5984851
0.32596669 -0.0042333333 0.63500005 2630174
-0.38304859 -0.0031761907 0.66700006 5984337
-0.38292289 -0.0031857146 0.66900003 6115410
-0.38164857 -0.0031857146 0.66900003 6115668
0.32545334 -0.0030190477 0.634 2630172
0.32322285 -0.0018057144 0.63200003 2759967
-0.37655145 -0.00063714286 0.66900003 6772574
0.32271144 -0.00060095242 0.63100004 2891298
-0.3743 0.00063333334 0.66500002 6838110
0.32168859 0.00059904763 0.62900001 3021854
0.32117715 0.0017942857 0.62800002 3746587
-0.37064859 0.003157143 0.66300005 7364705
0.32066572 0.0029857145 0.62700003 4534834
0.31845239 0.0041666664 0.625 4607532
-0.37204763 0.0055714287 0.65000004 7034714
-0.36765999 0.0055800001 0.65100002 6970206
0.31845239 0.005357143 0.625 3417641
-0.37204763 0.0068095243 0.65000004 6706781
0.31590477 0.0064952383 0.62 3154214
0.31708571 0.0064952383 0.62 2957611
-0.37576193 0.0080476198 0.65000004 5722958
-0.37386 0.0080599999 0.65100002 6181467
-0.37204763 0.0080476198 0.65000004 6444122
0.31657431 0.0076638092 0.61900002 2827557
-0.37576193 0.0092857154 0.65000004 5722965
0.31555143 0.0088142864 0.61700004 2762016
-0.37576193 0.01052381 0.65000004 5788503
-0.37452385 0.01052381 0.65000004 6181975
-0.37328571 0.01052381 0.65000004 6379352
0.31452858 0.0099571431 0.61500001 2696222
-0.37443429 0.011798096 0.65200001 6248025
0.31452858 0.011128572 0.61500001 2564893
-0.37625241 0.013060001 0.65300006 5920087
0.3129943 0.012240001 0.61200005 2499871
-0.37625241 0.01430381 0.65300006 5854038
-0.37443429 0.014281905 0.65200001 6181974
-0.3731924 0.014281905 0.65200001 6444375
0.31146002 0.013340001 0.60900003 2433314
-0.3731924 0.015523811 0.65200001 6444115
-0.37252098 0.015547619 0.65300006 6575701
-0.3629362 0.015404763 0.64700001 6904413
-0.35890856 0.015285715 0.64200002 7036000
0.31094861 0.014476191 0.60800004 2432545
-0.35890856 0.016508572 0.64200002 6970462
0.31094861 0.015634285 0.60800004 2366752
-0.35555431 0.017565714 0.63600004 6904925
0.31094861 0.016792383 0.60800004 2301216
-0.35499525 0.01874762 0.63500005 6904925
0.31043714 0.017920954 0.60700005 2366752
-0.35499525 0.019957144 0.63500005 6970719
0.30928096 0.019077145 0.60700005 2432542
-0.35443619 0.021133333 0.634 6970722
0.30127814 0.019933335 0.59800005 2170921
-0.35564381 0.022340951 0.634 6970720
0.30127814 0.021072382 0.59800005 1972258
-0.35452193 0.023474285 0.63200003 6970976
0.30140573 0.022137145 0.59600002 1051674
-0.35396096 0.02463905 0.63100004 6970979
0.30140573 0.023272382 0.59600002 200468
-0.35283905 0.025759049 0.62900001 7036774
0.30039433 0.024325715 0.59400004 1184270
0.30316669 0.024366667 0.59500003 1313819
-0.35283905 0.026957143 0.62900001 7102052
-0.35108191 0.026914285 0.62800002 7168360
0.30316669 0.025500001 0.59500003 1776668
-0.34996384 0.028020956 0.62600005 7233890
0.30316669 0.026633335 0.59500003 2170654
-0.34940475 0.029166667 0.625 7233888
0.3016381 0.027626665 0.59200001 2563614
-0.34940475 0.030357143 0.625 7168095
-0.34765714 0.030308573 0.62400001 7299423
0.30112857 0.028705714 0.59100002 2498077
-0.34654287 0.031396192 0.62200004 7233631
0.30010954 0.029730478 0.58900005 2432542
-0.34660953 0.03247619 0.62 7102302
-0.34542859 0.03247619 0.62 7168096
0.29959998 0.0308 0.588 2432544
-0.34660953 0.033657141 0.62 7101791
-0.34542859 0.033657141 0.62 7168096
0.29959998 0.031919997 0.588 2432285
-0.34542859 0.034838095 0.62 7168096
0.29909047 0.03298381 0.58700001 2366747
-0.34264284 0.03572857 0.61500001 7167839
0.29807144 0.033985715 0.58500004 2366490
-0.34046 0.036540002 0.60900003 7036254
-0.33874288 0.036480002 0.60800004 7102303
0.29705238 0.034979999 0.583 2432026
-0.34046 0.037700001 0.60900003 6970719
0.29654285 0.036028571 0.58200002 2562845
-0.34221718 0.038796194 0.60800004 6707808
-0.34105906 0.038796194 0.60800004 6839392
-0.33990097 0.038796194 0.60800004 6904929
0.29552382 0.037009526 0.58000004 2431777
-0.34623334 0.040151428 0.611 6642010
-0.34281048 0.039888576 0.60700005 6641755
-0.34221718 0.03995429 0.60800004 6707292
0.29238859 0.03785143 0.57600003 2367260
-0.34453332 0.041112382 0.60800004 6641755
0.29238859 0.038948573 0.57600003 2367002
-0.34626001 0.042339999 0.60900003 6641751
-0.34453332 0.042270478 0.60800004 6576474
0.29086572 0.039837144 0.57300001 2432281
-0.34626001 0.043500002 0.60900003 6576470
-0.34623334 0.043642856 0.611 6576474
0.29086572 0.040928572 0.57300001 1775641
-0.34623334 0.044806667 0.611 6642008
-0.34337527 0.04458667 0.60800004 6707801
-0.33702955 0.044513334 0.60700005 7298914
-0.33421335 0.044293337 0.60400003 7430243
0.2903581 0.041946668 0.57200003 1116685
-0.34281048 0.045669526 0.60700005 6641496
-0.33199999 0.045142859 0.60000002 7298915
0.2898505 0.042960957 0.57100004 1313537
-0.34281048 0.046825718 0.60700005 6641752
0.2898505 0.044048574 0.57100004 1445128
-0.33034 0.047191426 0.597 7233122
0.28767526 0.045136191 0.57100004 2300950
-0.32978666 0.048247617 0.59600002 7298658
0.28767526 0.046223812 0.57100004 2432279
-0.32978666 0.049382858 0.59600002 7364450
0.28263715 0.046482861 0.56100005 2432537
-0.32978666 0.050518095 0.59600002 7496548
0.28263715 0.047551431 0.56100005 2432535
0.2847743 0.047551431 0.56100005 2366486
-0.32923335 0.051566672 0.59500003 7496806
0.28426668 0.048533332 0.56 2300949
-0.32923335 0.052700002 0.59500003 7561572
0.28274381 0.049334288 0.55700004 2300951
-0.32757333 0.053561907 0.59200001 7561571
0.28274381 0.050395243 0.55700004 2367002
-0.32646668 0.054504763 0.59000003 7561826
0.28274381 0.051456194 0.55700004 2498586
-0.32591334 0.055534288 0.58900005 7495777
0.28325143 0.052611433 0.55800003 2564122
-0.32425714 0.055982858 0.58200002 7430755
-0.32314667 0.056175243 0.58400005 7430499
0.28168288 0.053578097 0.55700004 2825757
-0.32425714 0.05709143 0.58200002 7365733
0.27755335 0.054246668 0.55300003 2432544
-0.32425714 0.058200002 0.58200002 7299938
0.27705145 0.055200007 0.55200005 2432542
-0.32425714 0.059308574 0.58200002 7168094
-0.32259336 0.059206668 0.58100003 7233374
0.27705145 0.056251429 0.55200005 2367004
-0.32259336 0.060313337 0.58100003 7168094
0.27604762 0.057095237 0.55000001 2367001
0.27814287 0.057095237 0.55000001 2366742
-0.32259336 0.061420005 0.58100003 7232863
0.27763715 0.058037147 0.54900002 2300693
-0.3209143 0.061988577 0.57600003 7166560
-0.31981716 0.061988577 0.57600003 7297886
0.27713144 0.058975242 0.54800004 2234904
-0.3209143 0.06308572 0.57600003 7035485
0.27662575 0.05990953 0.54700005 2432282
-0.32035717 0.064071439 0.57500005 6969948
-0.3055543 0.064182863 0.57600003 7298659
0.27612001 0.060839999 0.546 2694168
-0.32364288 0.065166667 0.57500005 6642007
-0.32033429 0.064940006 0.57300001 6773337
-0.31924286 0.064940006 0.57300001 6839132
-0.3055543 0.065280005 0.57600003 6970978
-0.30392858 0.065166667 0.57500005 7036768
0.27561429 0.061766669 0.54500002 2300694
-0.32364288 0.06626191 0.57500005 6641749
-0.32086477 0.065916196 0.57200003 6641751
0.27460286 0.06257429 0.54300004 1972755
-0.32086477 0.067005716 0.57200003 6444630
0.27409717 0.063491434 0.54200006 2103824
-0.32139146 0.067976199 0.57100004 6378578
-0.32030383 0.067976199 0.57100004 6313045
0.27409717 0.064523816 0.54200006 2235921
-0.32078478 0.068700954 0.56800002 6247762
-0.32026571 0.068821907 0.56900001 6247506
0.27359143 0.065435238 0.54100001 2498835
-0.32078478 0.069782861 0.56800002 6116433
-0.32026571 0.069905713 0.56900001 6181970
-0.32030383 0.070151433 0.57100004 6313044
-0.31921622 0.070151433 0.57100004 6247766
0.27258 0.066220008 0.53900003 2826265
-0.31921622 0.071239047 0.57100004 6247765
-0.31645715 0.070864767 0.56800002 6182486
0.27207431 0.067121908 0.53800005 2694944
-0.31645715 0.071946666 0.56800002 6247765
0.27004191 0.067893334 0.53600001 2564900
-0.31645715 0.073028572 0.56800002 6182228
0.2695381 0.06878572 0.53500003 2564642
0.26853052 0.069543809 0.53300005 2630175
0.26954576 0.069543809 0.53300005 2564637
-0.083566666 0.072147623 0.54500002 15462878
0.26701906 0.070161909 0.53000003 2695708
0.26601145 0.070902854 0.528 2825756
-0.30392855 0.075585708 0.55500001 6378328
-0.097920001 0.074087627 0.54400003 10393720
0.26550764 0.071772382 0.52700001 2695196
-0.30338097 0.076504759 0.55400002 6378329
-0.084294297 0.07498572 0.54300004 15852252
0.26550764 0.072776191 0.52700001 2564636
-0.30443621 0.07756 0.55400002 6246995
-0.06325715 0.075600006 0.54000002 14074064
-0.05297143 0.075600006 0.54000002 13218496
0.26550764 0.07378 0.52700001 2564124
-0.30388668 0.078473337 0.55300003 6181717
-0.08059334 0.076486669 0.53900003 14666963
0.26400194 0.074641906 0.52600002 2564131
-0.30388668 0.07952667 0.55300003 6379094
-0.30119047 0.079095237 0.55000001 6444888
-0.30119047 0.080142856 0.55000001 6576217
-0.11200477 0.079705723 0.54700005 16246210
-0.052579049 0.078102857 0.53600001 13414834
-0.29850575 0.080747627 0.54700005 6707804
-0.052579049 0.07912381 0.53600001 13218224
0.11646286 0.078828573 0.53400004 3211855
0.25250003 0.077500008 0.52500004 2762035
-0.29845238 0.081490479 0.54500002 6707548
-0.29796001 0.081639998 0.546 6773087
-0.052186668 0.079546668 0.53200001 12953770
0.1059019 0.078799047 0.52700001 6115151
0.10731144 0.079098105 0.52900004 5984077
0.11522953 0.079696193 0.53300005 459317
-0.29845238 0.082528576 0.54500002 6773086
-0.052186668 0.080559999 0.53200001 13150885
0.1059019 0.079802856 0.52700001 5984080
0.26198098 0.078742862 0.52000004 2629916
-0.30046004 0.08326 0.54300004 6772828
-0.29777142 0.082800001 0.54000002 6839133
-0.052186668 0.08157333 0.53200001 13348268
0.11872572 0.08065334 0.52600002 5455933
0.26147717 0.079580002 0.51900005 2695458
-0.30046004 0.084294297 0.54300004 6773085
0.089174293 0.082120955 0.52900004 6115918
0.095579997 0.082431428 0.53100002 5788241
0.10088286 0.081810474 0.52700001 6114904
0.1048981 0.081810474 0.52700001 5786960
0.12497429 0.081810474 0.52700001 5392455
0.1264562 0.082120955 0.52900004 5392965
0.12898952 0.081810474 0.52700001 5392703
0.26097333 0.080413334 0.51800001 2629929
-0.30046004 0.085328579 0.54300004 6838621
0.088162854 0.082185708 0.523 5985864
0.12196286 0.082814284 0.52700001 5720649
0.12296667 0.082814284 0.52700001 5522761
0.12397048 0.082814284 0.52700001 5392198
0.12722285 0.082971431 0.528 5326913
0.13650002 0.082500003 0.52500004 5392199
0.13750002 0.082500003 0.52500004 5392196
0.25996572 0.081085719 0.51600003 2629164
-0.2999067 0.086203814 0.54200006 6773341
-0.14596 0.084931433 0.53400004 12634773
-0.052900005 0.084136195 0.52900004 14140348
0.1305 0.083500005 0.52500004 5195073
0.13150001 0.083500005 0.52500004 5195329
0.13224763 0.083340965 0.52400005 5195329
0.13299143 0.08318191 0.523 5261123
0.19276285 0.08318191 0.523 3879471
0.2589581 0.081750475 0.514 2563631
-0.2999067 0.087236196 0.54200006 6707548
-0.29887432 0.087236196 0.54200006 6773087
-0.29784194 0.087236196 0.54200006 6838621
0.087657154 0.08369524 0.52000004 3478840
0.2589581 0.082729518 0.514 2563621
0.087657154 0.084685721 0.52000004 4403501
0.14195715 0.085174285 0.523 5195332
0.25845429 0.083545715 0.51300001 2433051
-0.28883526 0.087818101 0.53300005 6904417
-0.14946666 0.087653339 0.53200001 14666200
-0.054603811 0.086664759 0.52600002 12956594
0.086500011 0.085511439 0.51900005 5984581
0.14114286 0.085676193 0.52000004 5195585
0.25795048 0.084358096 0.51200002 2302485
-0.2898505 0.08883334 0.53300005 6904409
-0.054603811 0.087666668 0.52600002 12825778
0.086500011 0.086500011 0.51900005 6049865
0.14893048 0.087166667 0.523 4274991
0.18796 0.086333334 0.51800001 3879729
0.25647336 0.08516667 0.51100004 2301460
-0.2898505 0.089848578 0.53300005 6641751
0.21770287 0.086982861 0.51600003 2959650
0.25647336 0.086140007 0.51100004 2432537
0.13586192 0.087795243 0.51500005 5128256
0.25597143 0.086942866 0.51000005 2498078
-0.29548001 0.092051432 0.53400004 6575705
-0.29501429 0.092223816 0.53500003 6510679
-0.29454476 0.092396185 0.53600001 6509911
-0.048038095 0.089638107 0.52000004 12429475
0.073364764 0.089120954 0.51700002 6444373
0.13612571 0.088948578 0.51600003 5194047
0.14525238 0.089120954 0.51700002 5193791
0.25597143 0.087914295 0.51000005 2563871
-0.29548001 0.093068577 0.53400004 6443864
-0.29454476 0.093417145 0.53600001 6444377
-0.2929762 0.093242861 0.53500003 6575449
-0.15609238 0.091848575 0.52700001 13613756
0.0083542857 0.089931436 0.51600003 6581110
0.0093914298 0.090454295 0.51900005 5001330
0.010380001 0.090454295 0.51900005 4804462
0.25500003 0.088885725 0.51000005 2563625
-0.29023811 0.093380958 0.53000003 6510169
0.0004914286 0.090914294 0.51600003 9074811
0.002457143 0.090914294 0.51600003 9140091
0.0034266666 0.090561904 0.514 9074300
0.010380001 0.091442861 0.51900005 592441
0.011302858 0.090914294 0.51600003 400199
0.012309524 0.091090478 0.51700002 4140117
0.014306667 0.091266669 0.51800001 8353408
0.015293334 0.091266669 0.51800001 8746875
0.25500003 0.089857146 0.51000005 2563617
-0.28969049 0.09421239 0.52900004 6444377
-0.15191905 0.093143813 0.523 13942726
-0.093420006 0.092431433 0.51900005 14076106
0.0004914286 0.091897145 0.51600003 9271418
0.0034266666 0.091540948 0.514 9074556
0.0044057141 0.091540948 0.514 9271934
0.0053847618 0.091540948 0.514 9469802
0.0063638096 0.091540948 0.514 7695703
0.012309524 0.092075236 0.51700002 5062953
0.015293334 0.092253335 0.51800001 8942208
0.016248573 0.092075236 0.51700002 8876917
0.019202856 0.092075236 0.51700002 8548206
0.02018762 0.092075236 0.51700002 8416624
0.02113143 0.091897145 0.51600003 8350317
0.045437142 0.091362856 0.51300001 7495779
0.087914295 0.090828583 0.51000005 6050127
0.13586192 0.091719054 0.51500005 5391434
0.13657714 0.091540948 0.514 5260614
0.13728857 0.091362856 0.51300001 5194563
0.13826571 0.091362856 0.51300001 5194305
0.13924286 0.091362856 0.51300001 5128512
0.16725335 0.091184765 0.51200002 4668477
0.19962859 0.090828583 0.51000005 3682095
0.20060001 0.090828583 0.51000005 3616306
0.20157145 0.090828583 0.51000005 3550253
0.20214571 0.090650477 0.509 3549993
0.25350001 0.090294287 0.50700003 2498330
0.25446573 0.090294287 0.50700003 2432793
-0.28969049 0.095220007 0.52900004 6378582
-0.016217144 0.092880011 0.51600003 10323337
-0.015234287 0.092880011 0.51600003 10257799
-0.014251429 0.092880011 0.51600003 10257543
-0.011237143 0.09234 0.51300001 10191493
-0.010260001 0.09234 0.51300001 9797253
-0.0093009518 0.092519999 0.514 9534085
-0.0083057145 0.09234 0.51300001 9338504
-0.0053742859 0.09234 0.51300001 9863553
-0.0044057141 0.092519999 0.514 9666178
-0.0034266666 0.092519999 0.514 9600131
0.016248573 0.093060002 0.51700002 8941684
0.02113143 0.092880011 0.51600003 8284524
0.021985715 0.09234 0.51300001 8219498
0.087741904 0.091620006 0.509 6050643
0.18480763 0.092160001 0.51200002 262934
0.18578286 0.092160001 0.51200002 262692
0.19028668 0.09198001 0.51100004 5387834
0.19088574 0.091800004 0.51000005 4271921
0.19185716 0.091800004 0.51000005 3223595
0.20214571 0.091620006 0.509 3484200
0.20351431 0.091800004 0.51000005 3484202
0.20408475 0.091620006 0.509 3483947
0.25446573 0.091260001 0.50700003 2432795
-0.28859523 0.095863812 0.52700001 6247252
-0.19575143 0.095136188 0.523 9994114
-0.19276285 0.095136188 0.523 10323330
-0.15174574 0.094408579 0.51900005 13941689
-0.074061908 0.093680955 0.51500005 13680577
-0.02003143 0.093317144 0.51300001 10389132
-0.019165715 0.093862861 0.51600003 10454672
-0.018182857 0.093862861 0.51600003 10585742
-0.017200001 0.093862861 0.51600003 10454413
-0.013217143 0.093499042 0.514 10257541
-0.012214286 0.093317144 0.51300001 10323843
-0.0083057145 0.093317144 0.51300001 9404044
-0.0073285713 0.093317144 0.51300001 9600914
0.021985715 0.093317144 0.51300001 8153450
0.087569527 0.092407621 0.50800002 6115415
0.13967334 0.092953339 0.51100004 5129281
0.1967143 0.092771441 0.51000005 3681576
0.2534619 0.091861904 0.505 2367262
-0.29160666 0.096867613 0.52700001 6246995
-0.28904954 0.096683815 0.52600002 6115924
-0.28859523 0.096867613 0.52700001 6181713
-0.1501762 0.095029525 0.51700002 13875637
-0.10250953 0.094661914 0.51500005 15252671
-0.020967619 0.094110474 0.51200002 10518404
-0.0073285713 0.094294287 0.51300001 9535115
-0.0063514286 0.094294287 0.51300001 9600134
0.021985715 0.094294287 0.51300001 8153190
0.022962857 0.094294287 0.51300001 8087655
0.023940001 0.094294287 0.51300001 8022120
0.024917142 0.094294287 0.51300001 7956583
0.02584381 0.094110474 0.51200002 8022118
0.026766667 0.093926676 0.51100004 8153190
0.087569527 0.093375243 0.50800002 6181459
0.13967334 0.093926676 0.51100004 5063745
0.14064668 0.093926676 0.51100004 5064000
0.16272287 0.09319143 0.50700003 4603447
0.18152668 0.093926676 0.51100004 3288093
0.18250002 0.093926676 0.51100004 3221783
0.18347335 0.093926676 0.51100004 2762257
0.19282858 0.093742862 0.51000005 3222055
0.2534619 0.092823803 0.505 2367003
-0.29105335 0.097685717 0.52600002 6050392
-0.0219 0.094900005 0.51100004 10521484
0.026766667 0.094900005 0.51100004 8153188
0.027685717 0.094714299 0.51000005 8022374
0.028657144 0.094714299 0.51000005 7956835
0.029570475 0.094528571 0.509 7825249
0.044905715 0.094157144 0.50700003 7429719
0.087397151 0.094157144 0.50700003 6115919
0.15143238 0.094342858 0.50800002 5062721
0.16851714 0.094157144 0.50700003 4272947
0.17554761 0.093785711 0.505 3418914
0.17825715 0.094714299 0.51000005 3287332
0.18055335 0.094900005 0.51100004 3221281
0.19282858 0.094714299 0.51000005 2959396
0.19380002 0.094714299 0.51000005 2959656
0.19477145 0.094714299 0.51000005 3090988
0.25296 0.093599997 0.50400001 2367001
-0.29105335 0.098687619 0.52600002 5918805
-0.2895 0.098500006 0.52500004 5918810
-0.28850001 0.098500006 0.52500004 5918805
-0.1873343 0.097374298 0.51900005 10915220
-0.18634574 0.097374298 0.51900005 11046291
-0.18105334 0.097186662 0.51800001 11310484
-0.12629333 0.096060954 0.51200002 13678010
0.029454287 0.095122859 0.50700003 7955812
0.044817146 0.094935246 0.50600004 7626331
0.086879998 0.094559997 0.50400001 5984846
0.14106572 0.0954981 0.509 5129279
0.14175619 0.095310479 0.50800002 5129280
0.14300476 0.0954981 0.509 5194301
0.14369144 0.095310479 0.50800002 5127995
0.14465904 0.095310479 0.50800002 5062462
0.14534001 0.095122859 0.50700003 4997185
0.15143238 0.095310479 0.50800002 5128767
0.1524 0.095310479 0.50800002 5062461
0.15306573 0.095122859 0.50700003 4931388
0.15596287 0.095122859 0.50700003 4733496
0.15661906 0.094935246 0.50600004 4667704
0.16851714 0.095122859 0.50700003 4076079
0.17554761 0.094747618 0.505 3156257
0.25296 0.094559997 0.50400001 2432791
-0.28850001 0.099500008 0.52500004 5984339
-0.2859543 0.09931048 0.52400005 6181715
-0.12629333 0.097036198 0.51200002 13547194
0.029454287 0.096088573 0.50700003 7759719
0.086879998 0.095520005 0.50400001 5984077
0.15306573 0.096088573 0.50700003 4733756
0.15372764 0.095899053 0.50600004 4536888
0.16015713 0.095709525 0.505 3356451
0.25100002 0.095140964 0.50200003 2498586
-0.28540859 0.10011714 0.523 6181458
-0.17971905 0.09896858 0.51700002 11243922
0.029454287 0.097054288 0.50700003 7562337
0.030420002 0.097054288 0.50700003 7366247
0.15630952 0.096671425 0.505 4076337
0.15984 0.096479997 0.50400001 2693411
0.20496 0.096479997 0.50400001 3484709
0.20510288 0.096097149 0.50200003 3353887
0.24710286 0.095331438 0.49800003 2498586
-0.28540859 0.10111333 0.523 6115666
-0.050899997 0.098406672 0.509 12492965
-0.030240001 0.097440004 0.50400001 10783622
0.030420002 0.098020002 0.50700003 7561570
0.044640001 0.097440004 0.50400001 327938
0.045600001 0.097440004 0.50400001 393473
0.087142855 0.096666664 0.5 5918029
0.15630952 0.097633332 0.505 3681837
0.15696 0.097440004 0.50400001 3550500
0.20510288 0.097053342 0.50200003 3419677
-0.17769714 0.10035238 0.514 11178386
0.045509528 0.098204769 0.50300002 65843
0.087142855 0.097619049 0.5 5918029
0.16655999 0.098399997 0.50400001 4731184
0.16752 0.098399997 0.50400001 3742501
0.16848001 0.098399997 0.50400001 2758687
0.16944 0.098399997 0.50400001 2430488
0.17039999 0.098399997 0.50400001 2103065
0.17068 0.098009527 0.50200003 2103321
0.24269429 0.095861912 0.49100003 2498334
-0.28619146 0.10231715 0.51900005 6049358
-0.28520289 0.10231715 0.51900005 6049871
-0.17769714 0.10133143 0.514 11112594
-0.17637429 0.10113429 0.51300001 11111820
0.045509528 0.099162862 0.50300002 2556262
0.04838381 0.099162862 0.50300002 11304077
0.15696 0.099360004 0.50400001 2760985
0.15792 0.099360004 0.50400001 2563342
0.15824954 0.098965719 0.50200003 2365966
0.17068 0.098965719 0.50200003 1511190
0.1712943 0.098768577 0.50100005 1510421
0.17389429 0.099162862 0.50300002 1248276
0.1752 0.099360004 0.50400001 1116692
0.17616001 0.099360004 0.50400001 1050642
0.24269429 0.096797153 0.49100003 2498081
-0.28453714 0.10270858 0.51600003 6114639
-0.021514287 0.099921912 0.50200003 10323600
0.090224765 0.098727621 0.49600002 6377296
0.096086666 0.098926663 0.49700001 5721168
0.1712943 0.099722862 0.50100005 919823
0.1752 0.10032 0.50400001 788236
0.17616001 0.10032 0.50400001 788236
0.24269429 0.09773238 0.49100003 2564128
-0.2850886 0.10389239 0.51700002 6180176
-0.054652382 0.10027524 0.49900001 12626346
-0.023380002 0.10067715 0.50100005 10718606
-0.022470478 0.1008781 0.50200003 10454924
0.096086666 0.099873334 0.49700001 5721165
0.1752 0.10128 0.50400001 525317
0.19981715 0.099672385 0.49600002 3155751
0.2007619 0.099672385 0.49600002 3090726
0.20821144 0.10007428 0.49800003 3090217
0.20916001 0.10007428 0.49800003 3024681
0.20968667 0.099873334 0.49700001 3024938
0.21020953 0.099672385 0.49600002 2959403
0.24269429 0.098667622 0.49100003 2630175
0.24693714 0.098868571 0.49200001 2695199
-0.2850886 0.10487714 0.51700002 6246995
-0.28520289 0.10528287 0.51900005 6049873
-0.13471715 0.10284857 0.50700003 13152693
-0.040880952 0.10244286 0.505 11575196
-0.024334287 0.10163144 0.50100005 10390675
0.05190476 0.10142857 0.5 7166559
0.095119998 0.09980572 0.49200001 5720393
0.19995239 0.10021143 0.49400002 2959654
0.20454095 0.10061715 0.49600002 3156266
0.22396286 0.10000857 0.49300003 3024161
0.2253581 0.10021143 0.49400002 2826529
0.22721525 0.10061715 0.49600002 2695713
0.22816001 0.10061715 0.49600002 2630176
0.22818096 0.10021143 0.49400002 2630175
0.22865811 0.10000857 0.49300003 2695712
0.22959715 0.10000857 0.49300003 2695714
0.23053621 0.10000857 0.49300003 2695709
0.24550001 0.099602863 0.49100003 2629660
-0.27951807 0.10524762 0.514 5984337
-0.25112382 0.1048381 0.51200002 8547952
-0.19320668 0.10463334 0.51100004 9730960
-0.19223335 0.10463334 0.51100004 10258332
-0.19200858 0.10504286 0.51300001 10790022
-0.19103144 0.10504286 0.51300001 9407856
-0.080319047 0.10340476 0.505 13086146
-0.055491429 0.10197143 0.49800003 12032418
-0.045600001 0.1032 0.50400001 11836323
-0.044640001 0.1032 0.50400001 11901857
-0.042719997 0.1032 0.50400001 11836829
-0.025187619 0.10217619 0.49900001 10390161
0.21115428 0.10156191 0.49600002 2959646
0.22257143 0.10074286 0.49200001 3089447
0.24550001 0.1005381 0.49100003 2498581
-0.22356287 0.10478 0.50700003 8219241
-0.20294002 0.10560668 0.51100004 9402492
-0.19787809 0.10498667 0.50800002 9992828
-0.04514762 0.10312667 0.49900001 12098978
-0.026085716 0.10292 0.49800003 10783371
0.050850477 0.10312667 0.49900001 6576988
0.21115428 0.10250667 0.49600002 2959391
0.21304382 0.10250667 0.49600002 2893086
0.21312572 0.10209334 0.49400002 2958364
0.22024858 0.10147334 0.49100003 3024937
0.22163428 0.10168 0.49200001 3025195
0.245 0.10126667 0.49000001 2367770
-0.28092858 0.10699714 0.51300001 5852484
-0.2525343 0.10574572 0.50700003 7233380
-0.19555715 0.10574572 0.50700003 9534323
-0.19459143 0.10574572 0.50700003 9468781
-0.19362572 0.10574572 0.50700003 9403511
-0.17589526 0.10553715 0.50600004 10717332
-0.17493144 0.10553715 0.50600004 10914711
-0.037543811 0.10407715 0.49900001 7633769
-0.036593333 0.10407715 0.49900001 5727097
-0.02893143 0.10386857 0.49800003 10785170
-0.028039047 0.10407715 0.49900001 10784141
-0.027034286 0.10386857 0.49800003 10848908
0.10188667 0.10282572 0.49300003 4996414
0.19860859 0.10282572 0.49300003 1580065
0.19914286 0.10261714 0.49200001 2302249
0.21312572 0.10303429 0.49400002 2893338
0.21363334 0.10282572 0.49300003 2958874
0.22024858 0.10240858 0.49100003 2893605
0.245 0.1022 0.49000001 2432544
-0.28092858 0.10797428 0.51300001 5786952
-0.17493144 0.10650096 0.50600004 10717067
-0.17396763 0.10650096 0.50600004 10914699
-0.1726619 0.10629047 0.505 10915724
-0.03557143 0.10481714 0.49800003 591689
-0.034692384 0.10502762 0.49900001 1058144
-0.033674289 0.10481714 0.49800003 4998263
-0.032791428 0.10502762 0.49900001 8948614
-0.031777143 0.10481714 0.49800003 9932693
-0.030828573 0.10481714 0.49800003 10915220
-0.029880002 0.10481714 0.49800003 10783891
0.05201143 0.10355429 0.49200001 7428186
0.10074286 0.10355429 0.49200001 4864571
0.19914286 0.10355429 0.49200001 2101798
0.19967334 0.10334381 0.49100003 3288626
0.21276668 0.10334381 0.49100003 2893084
0.244 0.10271239 0.48800004 2563869
-0.28092858 0.10895143 0.51300001 5721421
-0.1726619 0.10725237 0.505 10849420
-0.1717 0.10725237 0.505 10914439
-0.17039999 0.10704 0.50400001 10914434
-0.16944 0.10704 0.50400001 10979979
-0.16848001 0.10704 0.50400001 10980501
-0.16718763 0.10682762 0.50300002 11046805
-0.16556859 0.10640287 0.50100005 11112597
-0.065660954 0.10534095 0.49600002 12033446
0.050970476 0.10427905 0.49100003 6969185
0.10074286 0.10449143 0.49200001 4535351
0.21886666 0.10406667 0.49000001 2892064
0.22912763 0.1036419 0.48800004 2563610
0.24349999 0.10342953 0.48700002 2563867
-0.28092858 0.10992857 0.51300001 5656138
-0.27776858 0.10907143 0.509 5852490
-0.16556859 0.10735715 0.50100005 11112849
-0.16398667 0.10757143 0.50200003 11244438
-0.16303048 0.10757143 0.50200003 11375510
-0.12287048 0.10757143 0.50200003 12758452
-0.1219143 0.10757143 0.50200003 13219255
-0.12071715 0.10735715 0.50100005 13677749
-0.11976287 0.10735715 0.50100005 13481140
-0.1113962 0.10757143 0.50200003 13744826
-0.11044 0.10757143 0.50200003 13479350
-0.10948382 0.10757143 0.50200003 13282994
-0.10831144 0.10735715 0.50100005 13217710
0.1005381 0.10521429 0.49100003 4207154
0.21748857 0.10478572 0.48900002 2891803
0.22912763 0.10457144 0.48800004 2628891
0.23005715 0.10457144 0.48800004 2694430
0.23051335 0.10435715 0.48700002 2563617
0.23144096 0.10435715 0.48700002 2497820
0.243 0.10414286 0.48600003 2564122
-0.27776858 0.11004095 0.509 5787464
-0.16303048 0.10852763 0.50200003 11375510
-0.11218 0.10744666 0.49700001 14073019
-0.10735715 0.10831144 0.50100005 12495274
-0.10640287 0.10831144 0.50100005 12888493
-0.10544858 0.10831144 0.50100005 13281964
-0.1044943 0.10831144 0.50100005 13019563
-0.10333333 0.10809524 0.5 12757413
-0.043073334 0.10744666 0.49700001 11508114
0.21474381 0.10528477 0.48700002 2957845
0.21655715 0.10571714 0.48900002 2892049
0.23144096 0.10528477 0.48700002 2499100
0.24249999 0.10485238 0.48500001 2498330
-0.27571145 0.11057429 0.50700003 5918283
-0.21487144 0.11057429 0.50700003 262684
-0.21348383 0.1103562 0.50600004 1311522
-0.21252 0.1103562 0.50600004 2436423
-0.21071999 0.10992 0.50400001 5525867
-0.19722381 0.10882953 0.49900001 9007733
-0.19627334 0.10882953 0.49900001 9139318
-0.10333333 0.10904762 0.5 13019563
-0.10217619 0.10882953 0.49900001 13019048
-0.10027524 0.10882953 0.49900001 13021372
-0.099125721 0.10861143 0.49800003 13021096
-0.09817715 0.10861143 0.49800003 12494228
-0.09438286 0.10861143 0.49800003 10054735
-0.093059056 0.10817524 0.49600002 11901054
-0.049600001 0.10817524 0.49600002 11901856
-0.043073334 0.10839333 0.49700001 11376532
0.20960763 0.10643048 0.48800004 2893857
0.2332619 0.10577619 0.48500001 2630425
0.2346686 0.10599429 0.48600003 2630424
0.23656382 0.10643048 0.48800004 2367511
0.24249999 0.10577619 0.48500001 2498077
-0.27600002 0.11088 0.50400001 5720910
-0.27504 0.11088 0.50400001 5786958
-0.27462381 0.1111 0.505 5852494
-0.21071999 0.11088 0.50400001 6972028
-0.20976 0.11088 0.50400001 8549749
-0.2088 0.11088 0.50400001 8547950
-0.20660287 0.11022001 0.50100005 8613234
-0.20564859 0.11022001 0.50100005 8613238
-0.20428571 0.11 0.5 8613492
-0.20333333 0.11 0.5 8547954
-0.20319049 0.11044 0.50200003 8482157
-0.2022343 0.11044 0.50200003 8547688
-0.20127811 0.11044 0.50200003 8678765
-0.19952381 0.11 0.5 8744819
-0.1981743 0.10978001 0.49900001 8810612
-0.10217619 0.10978001 0.49900001 13151152
-0.09817715 0.10956001 0.49800003 12690861
-0.097228572 0.10956001 0.49800003 12559524
-0.093059056 0.10912 0.49600002 12635824
-0.092299998 0.10934 0.49700001 13222083
-0.091353334 0.10934 0.49700001 13810616
-0.052434288 0.10912 0.49600002 11771549
-0.051489525 0.10912 0.49600002 11836832
-0.045057144 0.10956001 0.49800003 11441559
-0.044020001 0.10934 0.49700001 11310230
0.10271239 0.10736001 0.48800004 2299674
0.2091781 0.10714 0.48700002 2894114
0.23049049 0.1067 0.48500001 2630684
0.23141429 0.1067 0.48500001 2564381
0.2323381 0.1067 0.48500001 2499101
0.23656382 0.10736001 0.48800004 2498844
0.23749334 0.10736001 0.48800004 2236439
0.23793429 0.10714 0.48700002 2367763
0.24200001 0.10648001 0.48400003 2498081
-0.27600002 0.11183999 0.50400001 5720654
-0.2088 0.11183999 0.50400001 8482671
-0.060445715 0.10917714 0.49200001 12426406
-0.059750479 0.10962096 0.49400002 12496552
-0.053056192 0.10939905 0.49300003 10981534
-0.044966668 0.11028667 0.49700001 11308695
0.10250191 0.10806762 0.48700002 1708822
0.23793429 0.10806762 0.48700002 2433303
0.23640953 0.1069581 0.48200002 2564631
0.24200001 0.10740191 0.48400003 2563874
-0.27600002 0.1128 0.50400001 5851983
-0.27504 0.1128 0.50400001 5983309
-0.26099718 0.11212858 0.50100005 6247252
-0.23427717 0.11212858 0.50100005 7496034
-0.23378858 0.11235239 0.50200003 7627362
-0.23376 0.1128 0.50400001 7692899
-0.23280001 0.1128 0.50400001 7824229
-0.23184 0.1128 0.50400001 7758696
-0.20976 0.1128 0.50400001 8351085
-0.11289905 0.11100953 0.49600002 12624814
-0.062446665 0.11033811 0.49300003 11707043
-0.05399524 0.11033811 0.49300003 11637666
-0.046859998 0.11123334 0.49700001 11573148
-0.045913331 0.11123334 0.49700001 11965594
0.048700001 0.10899524 0.48700002 6575702
0.07374572 0.10899524 0.48700002 4666682
0.10250191 0.10899524 0.48700002 1248019
0.2061124 0.1078762 0.48200002 2959389
0.20978478 0.1078762 0.48200002 2827551
0.21201429 0.10854762 0.48500001 2761758
0.2129381 0.10854762 0.48500001 2762014
0.21342096 0.10832381 0.48400003 2827807
0.23640953 0.1078762 0.48200002 2892315
0.23916382 0.1078762 0.48200002 2563616
0.24107811 0.10832381 0.48400003 2564129
-0.27394858 0.11330858 0.50200003 6245707
-0.23808666 0.11218 0.49700001 7364703
-0.23761715 0.11240572 0.49800003 7102815
-0.23666859 0.11240572 0.49800003 7430752
-0.23619333 0.11263143 0.49900001 7758176
-0.23571429 0.11285714 0.5 7561057
-0.23523144 0.11308287 0.50100005 7430244
-0.23184 0.11376 0.50400001 7955565
-0.23088001 0.11376 0.50400001 8020842
-0.22992 0.11376 0.50400001 8020838
-0.22896001 0.11376 0.50400001 8086634
-0.22573811 0.11263143 0.49900001 8415087
-0.16202667 0.11195429 0.49600002 11178892
-0.12587143 0.11172858 0.49500003 12625065
-0.12467619 0.11150286 0.49400002 12361895
0.034785714 0.10992286 0.48700002 7167325
0.2061124 0.10879429 0.48200002 2828318
0.20703048 0.10879429 0.48200002 2762526
0.20794858 0.10879429 0.48200002 2893597
0.20886667 0.10879429 0.48200002 3090209
0.23640953 0.10879429 0.48200002 3218717
0.23732764 0.10879429 0.48200002 2956320
0.23824571 0.10879429 0.48200002 2760224
-0.27394858 0.11426476 0.50200003 5983816
-0.27408001 0.11472 0.50400001 5918017
-0.24379714 0.1135819 0.49900001 6969431
-0.22573811 0.1135819 0.49900001 8087402
-0.2252381 0.11380953 0.5 8086376
-0.22473431 0.11403716 0.50100005 8020838
-0.22282574 0.11403716 0.50100005 7955815
-0.22098571 0.1135819 0.49900001 7890791
-0.22003524 0.1135819 0.49900001 7891048
-0.2195238 0.11380953 0.5 7956839
