# .PCD v0.7 - Point Cloud Data file format
VERSION 0.7
FIELDS x y z rgba
SIZE 4 4 4 4
TYPE F F F U
COUNT 1 1 1 1
WIDTH 441
HEIGHT 1
VIEWPOINT 0 0 0 1 0 0 0
POINTS 441
DATA ascii
-0.54661429 -0.40432858 1.245 6508623
-0.1586943 -0.23922573 0.82900006 16711418
-0.15635714 -0.23807144 0.82500005 16711420
-0.15516096 -0.23864858 0.82700002 16711416
-0.17332287 -0.23822001 0.83100003 9961925
-0.17174001 -0.23822001 0.83100003 10093020
-0.17015715 -0.23822001 0.83100003 9908724
-0.16857429 -0.23822001 0.83100003 9724409
-0.16699143 -0.23822001 0.83100003 9872126
-0.1650105 -0.23764668 0.82900006 10085370
-0.16382572 -0.23822001 0.83100003 9689847
-0.16224286 -0.23822001 0.83100003 9359861
-0.1595 -0.23650001 0.82500005 9819891
-0.15321431 -0.23650001 0.82500005 12844030
-0.15164286 -0.23650001 0.82500005 14089210
-0.13650002 -0.23322001 0.81900007 16701400
-0.13461047 -0.23265047 0.81700003 16700376
-0.13305429 -0.23265047 0.81700003 16634073
-0.1314981 -0.23265047 0.81700003 16568024
-0.12994191 -0.23265047 0.81700003 16501975
-0.12838572 -0.23265047 0.81700003 16435919
-0.12636381 -0.23179619 0.81400001 16239048
-0.11802858 -0.23065716 0.81000006 15979212
-0.11648572 -0.23065716 0.81000006 16242888
0.030865714 -0.23663715 0.83100003 4863793
0.032448575 -0.23663715 0.83100003 4864049
-0.1559781 -0.23279142 0.82300001 5767483
-0.14814 -0.23279142 0.82300001 8936385
-0.14152478 -0.23222572 0.82100004 9804000
-0.13962001 -0.23166002 0.81900007 10465254
-0.13772286 -0.23109429 0.81700003 11126490
-0.12481333 -0.23024571 0.81400001 15384760
-0.12341429 -0.23052859 0.81500006 15583927
-0.12216096 -0.23109429 0.81700003 15774397
-0.11986668 -0.22968002 0.81200004 15779268
0.030865714 -0.23505428 0.83100003 4929331
-0.1595 -0.23178573 0.82500005 6899252
-0.15754572 -0.23122381 0.82300001 6767165
-0.15403526 -0.23066191 0.82100004 5977174
-0.15284285 -0.23122381 0.82300001 5319270
-0.15127525 -0.23122381 0.82300001 4662130
-0.14934382 -0.23066191 0.82100004 4136063
-0.1462162 -0.23066191 0.82100004 3343734
-0.14465238 -0.23066191 0.82100004 3081852
-0.14308858 -0.23066191 0.82100004 2951298
0.014620952 -0.22700953 0.80800003 4728338
0.01612 -0.22644764 0.80600005 3539205
0.01769905 -0.22700953 0.80800003 2435606
0.019238096 -0.22700953 0.80800003 3550759
0.020777144 -0.22700953 0.80800003 4665126
0.022730477 -0.23122381 0.82300001 4731174
0.027633334 -0.23290955 0.82900006 4797491
0.029282859 -0.23347142 0.83100003 4862773
0.013049524 -0.22491241 0.80600005 5516545
0.014584763 -0.22491241 0.80600005 4656642
0.024357144 -0.2302143 0.82500005 4863279
0.025991429 -0.23077238 0.82700002 4863282
0.013017143 -0.22282286 0.80400002 3804955
0.0099295247 -0.22074096 0.80200005 4530945
0.011457143 -0.22074096 0.80200005 3279899
0.013017143 -0.22129142 0.80400002 3939125
-0.090440005 -0.21812001 0.79800004 13550771
0.006831429 -0.21784668 0.79700005 4725033
0.0083495239 -0.21784668 0.79700005 1972001
0.0098800007 -0.21812001 0.79800004 2758169
-0.088808581 -0.21632859 0.79700005 8750004
-0.087290481 -0.21632859 0.79700005 9080232
-0.085772388 -0.21632859 0.79700005 9410473
-0.084254287 -0.21632859 0.79700005 10199467
-0.082736202 -0.21632859 0.79700005 10988454
-0.08101429 -0.21578573 0.79500002 11643554
-0.079499997 -0.21578573 0.79500002 12298913
-0.077789523 -0.21524286 0.79300004 12690848
-0.076279052 -0.21524286 0.79300004 13021087
-0.074768573 -0.21524286 0.79300004 13281439
-0.073073328 -0.2147 0.79100001 13607319
-0.071566671 -0.2147 0.79100001 13737616
0.0037761906 -0.21524286 0.79300004 6042942
0.0052866666 -0.21524286 0.79300004 4391200
0.0067971433 -0.21524286 0.79300004 3808515
-0.069882862 -0.21265429 0.78900003 14392728
-0.068293341 -0.21238478 0.78800005 14265239
-0.066877142 -0.21265429 0.78900003 14130330
0.0037666666 -0.21319333 0.79100001 3146016
0.0022514286 -0.21088381 0.78800005 4325634
0.0037523813 -0.21088381 0.78800005 3609859
0.00074857142 -0.20885143 0.78600001 3146779
0.0022457142 -0.20885143 0.78600001 3610649
-0.068120003 -0.20735428 0.78600001 4916536
-0.066622861 -0.20735428 0.78600001 5112144
-0.064960003 -0.20682667 0.78400004 5771880
-0.063466676 -0.20682667 0.78400004 6366068
-0.061973337 -0.20682667 0.78400004 6370177
-0.060480002 -0.20682667 0.78400004 6374286
-0.052878097 -0.20629905 0.78200006 11045798
-0.051257145 -0.20577143 0.78000003 13280911
-0.049771432 -0.20577143 0.78000003 11507321
-0.0022400003 -0.20682667 0.78400004 4594689
-0.00074666669 -0.20682667 0.78400004 3277083
0.00074666669 -0.20682667 0.78400004 3742005
-0.058836192 -0.20480955 0.78200006 2361180
-0.057346672 -0.20480955 0.78200006 2819152
-0.055857148 -0.20480955 0.78200006 3801413
-0.054367624 -0.20480955 0.78200006 4804730
-0.0022342859 -0.20480955 0.78200006 2624790
-0.048100002 -0.20202 0.77700001 5572665
-0.04662 -0.20202 0.77700001 5709401
-0.045139998 -0.20202 0.77700001 5911902
-0.0052 -0.20280001 0.78000003 3609859
-0.0037142858 -0.20280001 0.78000003 2888983
-0.0022342859 -0.20332003 0.78200006 3679020
-0.043547619 -0.20002382 0.77500004 2886971
-0.042071432 -0.20002382 0.77500004 2821693
-0.040595241 -0.20002382 0.77500004 2953022
-0.039018098 -0.19950764 0.77300006 3087419
-0.037545718 -0.19950764 0.77300006 3549752
-0.036026664 -0.19924952 0.77200001 4078405
-0.012499048 -0.19924952 0.77200001 10843474
-0.011042858 -0.19950764 0.77300006 8021308
-0.0095952386 -0.20002382 0.77500004 5190452
-0.0081399996 -0.20054001 0.77700001 3080492
-0.0066771433 -0.2010562 0.77900004 986916
-0.0051933331 -0.2010562 0.77900004 2694683
-0.034466669 -0.19726667 0.77000004 4526382
-0.033 -0.19726667 0.77000004 4655931
-0.031533334 -0.19726667 0.77000004 5250377
-0.029988572 -0.19675428 0.76800001 5779293
-0.028525714 -0.19675428 0.76800001 5914738
-0.02702762 -0.1964981 0.76700002 6050421
-0.025566667 -0.1964981 0.76700002 6444920
-0.024105715 -0.1964981 0.76700002 6904953
-0.022644762 -0.1964981 0.76700002 7168378
-0.021183809 -0.1964981 0.76700002 7497334
-0.019722857 -0.1964981 0.76700002 7827827
-0.018261906 -0.1964981 0.76700002 8158322
-0.016822856 -0.19675428 0.76800001 8552049
-0.015360001 -0.19675428 0.76800001 9011302
-0.013897142 -0.19675428 0.76800001 7563867
-0.012466667 -0.19726667 0.77000004 6181934
0.058551431 -0.21638571 0.89100003 8623540
0.06367714 -0.23348287 0.96900004 8822204
0.059011433 -0.21466477 0.89800006 9086660
-0.18179812 -0.2029943 0.85600007 5725028
-0.17785239 -0.20038572 0.84500003 6118735
-0.17624286 -0.20038572 0.84500003 5192763
-0.17463334 -0.20038572 0.84500003 4274747
0.059011433 -0.2129543 0.89800006 9218252
-0.23152383 -0.2079505 0.88400006 16711422
-0.18549143 -0.20183429 0.85800004 5056856
-0.17040762 -0.1994819 0.84800005 4336676
-0.16879238 -0.1994819 0.84800005 4468021
0.059208572 -0.21194953 0.90100002 9415627
-0.1879981 -0.20113334 0.86200005 7822667
-0.17616858 -0.1953 0.83700001 4335150
-0.17141429 -0.19716667 0.84500003 4076335
-0.17040762 -0.19786668 0.84800005 4074025
0.059340004 -0.21070002 0.90300006 9548490
-0.17448477 -0.19185428 0.82900006 5057332
0.059340004 -0.20898001 0.90300006 9746895
-0.17532668 -0.19119336 0.83300006 5452602
-0.17141429 -0.19394763 0.84500003 4336933
0.059471432 -0.20771906 0.90500003 9551573
-0.17174001 -0.18915144 0.83100003 5189672
-0.16857429 -0.18915144 0.83100003 4795172
0.057939049 -0.20667811 0.90800005 2031986
0.061574284 -0.21327905 0.93700004 9356505
-0.17332287 -0.18756858 0.83100003 6307903
0.0546 -0.2054 0.91000003 6113832
0.058066666 -0.2054 0.91000003 2687346
-0.18282001 -0.18598571 0.83100003 7755598
-0.18008669 -0.18643335 0.83300006 7362128
-0.17850001 -0.18643335 0.83300006 7165263
-0.17691335 -0.18643335 0.83300006 6768975
-0.17490572 -0.18598571 0.83100003 6377035
-0.16224858 -0.18419524 0.82300001 3874360
-0.16634287 -0.19068573 0.85200006 3221047
0.052750479 -0.20321906 0.90800005 5721158
0.05676667 -0.20523334 0.91700006 4655382
0.05915143 -0.20747145 0.92700005 3350657
-0.1952762 -0.1952762 0.88000005 7820880
-0.19360001 -0.1952762 0.88000005 7689806
-0.17992859 -0.18307143 0.82500005 7624527
-0.15911905 -0.1808524 0.81500006 4073010
-0.15756667 -0.1808524 0.81500006 4007470
-0.16309716 -0.18906286 0.85200006 3941933
-0.083670482 -0.17885526 0.80600005 3283481
0.046671428 -0.19771715 0.89100003 4470336
0.048748575 -0.19927049 0.89800006 4601921
0.050852381 -0.20082381 0.90500003 4733505
0.05676667 -0.20348668 0.91700006 4407590
0.05870476 -0.20415238 0.92000002 3686288
-0.15582286 -0.17907999 0.81400001 4007470
-0.083670482 -0.17732002 0.80600005 3546138
-0.081931427 -0.17688 0.80400002 3283482
0.044873338 -0.19558001 0.88900006 3812920
0.05676667 -0.20174001 0.91700006 4195105
0.058832381 -0.20284 0.92200005 4076660
-0.15582286 -0.17752953 0.81400001 4532014
-0.079800002 -0.17404 0.79800004 3283736
-0.078280002 -0.17404 0.79800004 3152661
0.043180004 -0.19388667 0.88900006 3350319
0.05676667 -0.19999334 0.91700006 3081756
0.058832381 -0.20108382 0.92200005 2566489
-0.19316001 -0.18981524 0.87800002 7689557
-0.19148763 -0.18981524 0.87800002 7624027
-0.18051906 -0.18051906 0.83500004 7756385
-0.16185333 -0.18462667 0.85400003 4726828
-0.14294858 -0.18332954 0.84800005 3743021
-0.14083333 -0.18268095 0.84500003 3874348
-0.1392238 -0.18268095 0.84500003 4073006
-0.076952383 -0.17295238 0.80000001 3350296
-0.075428575 -0.17295238 0.80000001 2825236
-0.07390476 -0.17295238 0.80000001 2366231
0.043277144 -0.19262572 0.89100003 2890790
0.05676667 -0.19824667 0.91700006 1968675
-0.17892858 -0.17892858 0.83500004 7625553
-0.15427239 -0.17442858 0.81400001 4993070
-0.15985143 -0.18257144 0.85200006 4860461
-0.15822859 -0.18257144 0.85200006 4793901
-0.15372001 -0.18300001 0.85400003 4268584
-0.15209335 -0.18300001 0.85400003 3874857
-0.15046667 -0.18300001 0.85400003 3546917
-0.13977715 -0.17185715 0.80200005 3612194
-0.12996 -0.171 0.79800004 3875118
-0.13536096 -0.18021429 0.84100002 3941683
0.041486669 -0.19050001 0.88900006 2561565
0.043277144 -0.19092858 0.89100003 2431517
0.05676667 -0.1965 0.91700006 2363947
-0.1485181 -0.17160381 0.80800003 5517104
-0.14697905 -0.17160381 0.80800003 5057580
-0.12692 -0.16948001 0.79800004 3415601
-0.12540001 -0.16948001 0.79800004 3284520
-0.12962382 -0.17733809 0.83500004 3022367
0.039793335 -0.18880667 0.88900006 2495768
0.041579999 -0.18923144 0.89100003 2233622
0.0546 -0.19326667 0.91000003 2693411
0.05664286 -0.19432856 0.91500002 2760488
-0.12220667 -0.16774952 0.79700005 3020061
-0.12068858 -0.16774952 0.79700005 3282216
-0.12515143 -0.17616858 0.83700001 3544353
-0.090357147 -0.17364287 0.82500005 3415847
-0.088785723 -0.17364287 0.82500005 3481641
-0.083302855 -0.16585524 0.78800005 3218732
-0.081801906 -0.16585524 0.78800005 3021612
-0.07390476 -0.16838096 0.80000001 2233625
-0.072561905 -0.1688019 0.80200005 2430492
0.039793335 -0.18711334 0.88900006 2232594
0.04891143 -0.18963905 0.90100002 2299161
0.050740004 -0.19006002 0.90300006 2430490
0.052576192 -0.19048096 0.90500003 2561819
0.054300003 -0.19048096 0.90500003 2760480
-0.12008096 -0.17415714 0.83500004 3283239
-0.1190581 -0.17499144 0.83900005 3282722
-0.10684286 -0.17332287 0.83100003 3811379
-0.099053346 -0.16310287 0.78200006 3941935
-0.097813338 -0.16352001 0.78400004 3744811
-0.096320003 -0.16352001 0.78400004 3612712
-0.094826676 -0.16352001 0.78400004 3481125
-0.093333341 -0.16352001 0.78400004 3349539
-0.096408576 -0.17165428 0.82300001 2890529
-0.094840951 -0.17165428 0.82300001 2497825
-0.093500003 -0.17207143 0.82500005 2757665
-0.087360002 -0.16352001 0.78400004 3085341
-0.072742864 -0.16769142 0.80400002 2168088
0.047195237 -0.18792285 0.90100002 2167824
0.04891143 -0.18792285 0.90100002 2430231
0.050740004 -0.18834002 0.90300006 2692889
-0.12385239 -0.17339334 0.83900005 3676965
-0.11584286 -0.16429999 0.79500002 3414051
-0.11102001 -0.16388667 0.79300004 3217168
-0.11530953 -0.17256667 0.83500004 3151899
-0.11371905 -0.17256667 0.83500004 3284007
-0.11159144 -0.17174001 0.83100003 3415850
-0.11000858 -0.17174001 0.83100003 3481134
-0.074274287 -0.16616 0.80400002 1970965
-0.0097561907 -0.16285335 0.78800005 2561813
0.047038097 -0.18558668 0.89800006 2299149
-0.07224191 -0.16012383 0.78200006 2298387
-0.0097561907 -0.1613524 0.78800005 2299414
0.045327619 -0.1838762 0.89800006 2298893
0.047038097 -0.1838762 0.89800006 2496273
-0.0097685717 -0.1600543 0.78900003 2495767
0.030833337 -0.17750001 0.87500006 1970197
0.03261143 -0.17810857 0.87800002 1839377
0.041813336 -0.18176 0.89600003 2036759
0.043520004 -0.18176 0.89600003 2299670
0.045327619 -0.18216573 0.89800006 2431509
-0.0097685717 -0.15855142 0.78900003 2692119
0.028966667 -0.17462763 0.86900002 2035217
0.034440003 -0.17724 0.88200003 1903888
0.036201905 -0.17764191 0.88400006 1903887
0.038185716 -0.17904858 0.89100003 1969422
0.039882861 -0.17904858 0.89100003 2102034
0.041720003 -0.17965144 0.89400005 2299670
-0.0097685717 -0.15704857 0.78900003 2691863
0.029033335 -0.1733705 0.87100005 1838606
0.036201905 -0.17595811 0.88400006 1970453
0.0381 -0.17695335 0.88900006 2102039
-0.17583334 -0.17250001 0.87500006 5060154
-0.17416668 -0.17250001 0.87500006 5059639
-0.17250001 -0.17250001 0.87500006 5124916
-0.17083335 -0.17250001 0.87500006 5190707
-0.15834002 -0.16146001 0.81900007 5125683
-0.008328571 -0.15672857 0.79500002 2692116
0.029033335 -0.17171144 0.87100005 1707531
-0.16750002 -0.17083335 0.87500006 4862512
-0.16545428 -0.17044286 0.87300003 4928048
-0.16341619 -0.17005238 0.87100005 4928048
-0.16175716 -0.17005238 0.87100005 4862000
-0.15973048 -0.16966191 0.86900002 4796206
-0.008307619 -0.15482381 0.79300004 2560532
-0.15771145 -0.16762 0.86700004 4730669
-0.15570001 -0.16723335 0.86500007 4730412
-0.15405239 -0.16723335 0.86500007 4665644
-0.15240477 -0.16723335 0.86500007 4664875
-0.14266668 -0.16549335 0.85600007 4336165
-0.1410362 -0.16549335 0.85600007 4205352
-0.13940571 -0.16549335 0.85600007 4205611
-0.008307619 -0.15331334 0.79300004 2494482
-0.15075715 -0.16558573 0.86500007 4468519
-0.14859238 -0.16501144 0.86200005 4402982
-0.14695048 -0.16501144 0.86200005 4402213
-0.14497143 -0.16462857 0.86000001 4336928
-0.13777526 -0.16386287 0.85600007 4139815
-0.13614477 -0.16386287 0.85600007 4139560
-0.13451429 -0.16386287 0.85600007 4139562
-0.008328571 -0.15218571 0.79500002 2232592
-0.13288382 -0.16223238 0.85600007 4073768
-0.13125335 -0.16223238 0.85600007 4073767
-0.12992573 -0.16261142 0.85800004 4008229
-0.008328571 -0.15067142 0.79500002 2036499
-0.12636191 -0.16060191 0.85600007 3745819
-0.12414857 -0.15985143 0.85200006 3745053
-0.12252572 -0.15985143 0.85200006 3744800
-0.12090286 -0.15985143 0.85200006 3810339
-0.119 -0.15947621 0.85000002 3810342
-0.11710477 -0.15910096 0.84800005 3810082
-0.11576191 -0.15947621 0.85000002 3678751
-0.0083600003 -0.14972001 0.79800004 2233111
-0.12859048 -0.15971428 0.86000001 3680545
-0.11414286 -0.15785713 0.85000002 3678496
-0.11225905 -0.15748572 0.84800005 3678752
-0.10946953 -0.15581429 0.83900005 3678242
-0.10787144 -0.15581429 0.83900005 3809573
-0.10627334 -0.15581429 0.83900005 3940126
-0.0083600003 -0.14820001 0.79800004 2429713
-0.13022858 -0.15807618 0.86000001 3614503
-0.1057981 -0.1558705 0.84800005 3481363
-0.097671427 -0.14612857 0.79500002 3415574
-0.089646667 -0.14539333 0.79100001 3350048
-0.093265712 -0.15384857 0.83700001 3284511
-0.09167143 -0.15384857 0.83700001 3284511
-0.090077139 -0.15384857 0.83700001 3283997
-0.0098428568 -0.14612857 0.79500002 2493967
-0.10220476 -0.15370953 0.84500003 3415578
-0.094404764 -0.14425048 0.79300004 3546651
-0.092659995 -0.14388667 0.79100001 3546653
-0.091153331 -0.14388667 0.79100001 3546653
-0.095086671 -0.1526181 0.83900005 3546653
-0.088482857 -0.15225428 0.83700001 3349017
-0.086888574 -0.15225428 0.83700001 3349271
-0.0098428568 -0.14461428 0.79500002 2495246
-0.0098676197 -0.14346001 0.79700005 2364941
-0.0083809523 -0.1424762 0.80000001 2167307
-0.0083809523 -0.14095238 0.80000001 2101514
-0.0084019052 -0.13977715 0.80200005 2101517
-0.0099047627 -0.13790476 0.80000001 2101775
-0.011428571 -0.13638094 0.80000001 2430993
-0.011485714 -0.13553143 0.80400002 2430485
-0.012984763 -0.13366666 0.80200005 2627350
-0.013017143 -0.13246858 0.80400002 2561300
-0.013017143 -0.13093714 0.80400002 2496019
-0.10920857 -0.13471715 0.83700001 4404796
-0.10761429 -0.13471715 0.83700001 4339258
-0.10627334 -0.13503905 0.83900005 4273468
-0.10467524 -0.13503905 0.83900005 4273726
-0.013017143 -0.12940572 0.80400002 2562066
-0.10283143 -0.13312286 0.83700001 4273980
-0.10123715 -0.13312286 0.83700001 4142907
-0.094633341 -0.13280477 0.83500004 4338491
-0.092820004 -0.13248667 0.83300006 4207418
-0.091233335 -0.13248667 0.83300006 4141881
-0.089431427 -0.13216858 0.83100003 4076087
-0.087848574 -0.13216858 0.83100003 4076342
-0.086265713 -0.13216858 0.83100003 4075572
-0.084682859 -0.13216858 0.83100003 4010290
-0.083100006 -0.13216858 0.83100003 3944754
-0.099166676 -0.13090001 0.83300006 4142644
-0.097580008 -0.13090001 0.83300006 4273466
-0.095762856 -0.13058572 0.83100003 4404028
-0.081517145 -0.13058572 0.83100003 4010293
-0.07974191 -0.13027143 0.82900006 3944757
-0.078162864 -0.13027143 0.82900006 3944757
-0.07658381 -0.13027143 0.82900006 4010292
-0.074823812 -0.12995714 0.82700002 3944500
-0.073248573 -0.12995714 0.82700002 3878961
-0.071500003 -0.12964287 0.82500005 3878703
-0.069928572 -0.12807143 0.82500005 4075825
-0.068357147 -0.12807143 0.82500005 3944754
-0.066785723 -0.12807143 0.82500005 3878962
-0.065214291 -0.12807143 0.82500005 3878962
-0.063642859 -0.12807143 0.82500005 3944754
-0.062071431 -0.12807143 0.82500005 3879219
-0.060500003 -0.12807143 0.82500005 3878962
-0.058785714 -0.12776095 0.82300001 3813169
-0.057218097 -0.12776095 0.82300001 3813419
-0.01612 -0.12512191 0.80600005 2955285
-0.014584763 -0.12512191 0.80600005 2758163
-0.013081905 -0.12543239 0.80800003 2562068
-0.055650476 -0.12619334 0.82300001 3813677
-0.054082859 -0.12619334 0.82300001 3747883
-0.052387621 -0.12588666 0.82100004 3747625
-0.050823811 -0.12588666 0.82100004 3747369
-0.049260002 -0.12588666 0.82100004 3681577
-0.047696192 -0.12588666 0.82100004 3550506
-0.027000003 -0.1242 0.81000006 2956313
-0.025457144 -0.1242 0.81000006 2890257
-0.023914289 -0.1242 0.81000006 2889737
-0.02237143 -0.1242 0.81000006 2889229
-0.020777144 -0.12389333 0.80800003 2824210
-0.019238096 -0.12389333 0.80800003 2758928
-0.013114287 -0.1242 0.81000006 2496535
-0.011571429 -0.1242 0.81000006 2102297
-0.046020001 -0.12402001 0.81900007 3747631
-0.044460002 -0.12402001 0.81900007 3747371
-0.042690478 -0.12341429 0.81500006 3681832
-0.041138098 -0.12341429 0.81500006 3681581
-0.039585717 -0.12341429 0.81500006 3615794
-0.038033333 -0.12341429 0.81500006 3615789
-0.036436189 -0.12326285 0.81400001 3550504
-0.034885716 -0.12326285 0.81400001 3549991
-0.033335235 -0.12326285 0.81400001 3484198
-0.028613335 -0.12296 0.81200004 3155234
-0.011571429 -0.12265715 0.81000006 2036508
-0.031706665 -0.12141334 0.81200004 3681580
-0.030085716 -0.1211143 0.81000006 3549996
-0.011571429 -0.1211143 0.81000006 2629152
-0.45197999 -0.10761429 0.83700001 7495525
-0.44002667 -0.10285334 0.81200004 7364192
-0.45089999 -0.10576668 0.83500004 7757149
-0.44608098 -0.10342763 0.82900006 8543345
