# .PCD v0.7 - Point Cloud Data file format
VERSION 0.7
FIELDS x y z rgba
SIZE 4 4 4 4
TYPE F F F U
COUNT 1 1 1 1
WIDTH 1114
HEIGHT 1
VIEWPOINT 0 0 0 1 0 0 0
POINTS 1114
DATA ascii
0.06367714 -0.23348287 0.96900004 8822204
0.065522857 -0.23348287 0.96900004 15529940
-0.52127999 -0.24096 1.008 9403251
-0.51832956 -0.24048191 1.006 9469048
-0.47523808 -0.23904762 1 14789590
-0.2604 -0.23426667 0.98000002 16711422
0.023338096 -0.20199524 0.84500003 5258817
0.04497429 -0.21299143 0.89100003 5916742
0.065522857 -0.23163715 0.96900004 16120536
0.47941718 -0.22661716 0.94800007 1378590
0.48122287 -0.22661716 0.94800007 852503
0.48150003 -0.22590001 0.94500005 393494
0.48330003 -0.22590001 0.94500005 327957
-0.51678377 -0.23785429 1.003 9534588
-0.2604 -0.2324 0.98000002 16711422
-0.25853333 -0.2324 0.98000002 16711422
-0.18505906 -0.2029943 0.85600007 6709112
-0.18342859 -0.2029943 0.85600007 5331310
-0.18179812 -0.2029943 0.85600007 5725028
0.023282859 -0.19991145 0.84300005 5258817
0.045125719 -0.21200573 0.89400005 5982280
0.06532 -0.22908001 0.96600002 15990493
-0.47523808 -0.23523809 1 13220544
-0.46907336 -0.23312096 0.99100006 12762570
-0.25853333 -0.23053333 0.98000002 16711422
-0.18712573 -0.20183429 0.85800004 7954782
-0.18549143 -0.20183429 0.85800004 5056856
0.045125719 -0.21030286 0.89400005 6049098
0.065117143 -0.22653429 0.96300006 15859421
-0.46907336 -0.23123334 0.99100006 13147566
-0.4686 -0.23193333 0.99400002 13156265
-0.46529812 -0.23123334 0.99100006 13205427
-0.45963526 -0.23123334 0.99100006 12423847
-0.45913333 -0.23193333 0.99400002 11773849
-0.45724002 -0.23193333 0.99400002 11185291
-0.45534667 -0.23193333 0.99400002 10596752
-0.45482191 -0.23263334 0.99700004 11906454
-0.45292288 -0.23263334 0.99700004 13281971
-0.44966665 -0.23193333 0.99400002 14331857
-0.44777334 -0.23193333 0.99400002 15327463
-0.4445343 -0.23123334 0.99100006 15989758
-0.44130668 -0.23053335 0.98800004 16711422
-0.25932476 -0.22936668 0.98300004 16711422
-0.2574524 -0.22936668 0.98300004 16711422
-0.1879981 -0.20113334 0.86200005 7822667
0.045125719 -0.20860001 0.89400005 5918028
0.065117143 -0.2247 0.96300006 16252637
-0.51869428 -0.23212285 1.003 8674931
-0.51678377 -0.23212285 1.003 9009532
-0.51487333 -0.23212285 1.003 9667717
-0.50989431 -0.23073429 0.99700004 10389392
-0.50646669 -0.23004 0.99400002 10389402
-0.45592478 -0.22749428 0.98300004 13615031
-0.43564287 -0.22286573 0.96300006 14267334
-0.2574524 -0.22749428 0.98300004 16711422
-0.19117999 -0.20111144 0.86900002 7886424
-0.18952477 -0.20111144 0.86900002 7756623
0.045327619 -0.20782287 0.89800006 5852492
0.064779051 -0.2217086 0.95800006 16711395
-0.51678377 -0.23021239 1.003 9535613
-0.50646669 -0.22814667 0.99400002 10455188
-0.49898955 -0.22562192 0.98300004 10455445
-0.45500287 -0.22424477 0.97700006 13810632
-0.25695047 -0.22355619 0.97400004 16711422
-0.2574524 -0.22562192 0.98300004 16711422
-0.19162002 -0.19991525 0.87100005 7755603
-0.16879238 -0.1946362 0.84800005 3878201
0.045327619 -0.2061124 0.89800006 5720652
0.064779051 -0.21988383 0.95800006 16711401
-0.49898955 -0.22374953 0.98300004 10587029
-0.49711716 -0.22374953 0.98300004 10652566
-0.45822862 -0.22124572 0.97200006 13349825
-0.46013334 -0.22306667 0.98000002 13416131
-0.45686382 -0.22238383 0.97700006 13482437
-0.25827429 -0.22124572 0.97200006 16711422
-0.19327906 -0.19825619 0.87100005 7886672
-0.19162002 -0.19825619 0.87100005 7690321
-0.16879238 -0.19302095 0.84800005 4008504
-0.16757144 -0.1934762 0.85000002 4467771
0.043520004 -0.20394668 0.89600003 5720136
0.061574284 -0.21327905 0.93700004 9356505
0.063359044 -0.21327905 0.93700004 16711403
-0.25535145 -0.21691144 0.96100003 16711422
-0.19372286 -0.19704857 0.87300003 7886670
-0.16796573 -0.19230857 0.85200006 4138555
-0.16634287 -0.19230857 0.85200006 4073021
0.061574284 -0.2114943 0.93700004 9686494
-0.47506666 -0.21933334 0.98000002 13021362
-0.46402574 -0.21508096 0.96100003 13153720
-0.2545543 -0.21440955 0.95800006 16711422
-0.19372286 -0.19538571 0.87300003 7886671
-0.16634287 -0.19068573 0.85200006 3221047
-0.16510667 -0.19113334 0.85400003 3548215
-0.16309716 -0.19068573 0.85200006 3942194
-0.47304004 -0.21569143 0.97200006 12298157
-0.25110003 -0.2097 0.94500005 16711422
-0.24930002 -0.2097 0.94500005 16711422
-0.24648002 -0.21036573 0.94800007 16711422
-0.1952762 -0.1952762 0.88000005 7820880
-0.19360001 -0.1952762 0.88000005 7689806
-0.16309716 -0.18906286 0.85200006 3941933
-0.16185333 -0.18950668 0.85400003 4007469
-0.48477811 -0.21494001 0.97700006 11771045
-0.48143429 -0.21427999 0.97400004 11836841
-0.47957906 -0.21427999 0.97400004 11901869
-0.47674286 -0.21384001 0.97200006 12690353
-0.47489145 -0.21384001 0.97200006 13476786
-0.47304004 -0.21384001 0.97200006 11707315
-0.24648002 -0.20856002 0.94800007 16711422
-0.19250001 -0.19250001 0.87500006 7689298
-0.16185333 -0.18787999 0.85400003 3874604
0.10952857 -0.20570001 0.93500006 14668506
0.11130953 -0.20570001 0.93500006 14537177
0.11272763 -0.20504001 0.93200004 14471383
-0.43293431 -0.20784478 0.95300007 13616323
-0.43111905 -0.20784478 0.95300007 13222337
-0.42930385 -0.20784478 0.95300007 12893905
-0.42614287 -0.2071905 0.95000005 14339042
-0.24648002 -0.2067543 0.94800007 16711422
-0.19316001 -0.19148763 0.87800002 7689558
-0.16185333 -0.18625334 0.85400003 4333355
0.049400002 -0.19846666 0.91000003 3350577
0.051414285 -0.19955714 0.91500002 3416116
0.25107145 -0.2017381 0.92500007 10259861
0.25283334 -0.2017381 0.92500007 10259860
0.25459525 -0.2017381 0.92500007 10259347
-0.42255428 -0.20365143 0.94200003 14011602
-0.24648002 -0.20494859 0.94800007 16711422
-0.19316001 -0.18981524 0.87800002 7689557
-0.19148763 -0.18981524 0.87800002 7624027
-0.16185333 -0.18462667 0.85400003 4726828
-0.16022667 -0.18462667 0.85400003 4464171
-0.15046667 -0.18462667 0.85400003 3218987
-0.14849144 -0.1841943 0.85200006 3350058
-0.14652382 -0.18376191 0.85000002 3546412
-0.14490476 -0.18376191 0.85000002 3611950
-0.14294858 -0.18332954 0.84800005 3743021
-0.14083333 -0.18268095 0.84500003 3874348
-0.1392238 -0.18268095 0.84500003 4073006
-0.13728859 -0.18224858 0.84300005 4206127
-0.13536096 -0.18181619 0.84100002 4403509
-0.08460477 -0.17619525 0.81500006 3613475
0.021908572 -0.1841943 0.85200006 2890783
-0.49331334 -0.20592858 0.96100003 9339523
-0.24798095 -0.20142858 0.94000006 16711422
-0.24828573 -0.20314287 0.94800007 16711422
-0.19192383 -0.18857144 0.88000005 7427156
-0.19024763 -0.18857144 0.88000005 7493460
-0.15985143 -0.18257144 0.85200006 4860461
-0.15822859 -0.18257144 0.85200006 4793901
-0.15660572 -0.18257144 0.85200006 4727594
-0.15534668 -0.18300001 0.85400003 4465191
-0.15372001 -0.18300001 0.85400003 4268584
-0.15209335 -0.18300001 0.85400003 3874857
-0.15046667 -0.18300001 0.85400003 3546917
-0.13536096 -0.18021429 0.84100002 3941683
-0.13312286 -0.17935714 0.83700001 3942456
-0.13152857 -0.17935714 0.83700001 4008754
-0.12962382 -0.17892858 0.83500004 3943213
-0.087002859 -0.17635715 0.82300001 3876660
-0.085435241 -0.17635715 0.82300001 3548459
0.021908572 -0.18257144 0.85200006 2890518
-0.49331334 -0.20409811 0.96100003 8417135
-0.4899486 -0.20346096 0.95800006 8419970
-0.24977143 -0.1996381 0.94000006 16711422
-0.19068 -0.18732001 0.88200003 7296340
-0.12962382 -0.17733809 0.83500004 3022367
-0.12834001 -0.17776285 0.83700001 2759461
-0.12644285 -0.17733809 0.83500004 3151914
-0.12455334 -0.17691335 0.83300006 3545904
-0.088570476 -0.17478953 0.82300001 3877161
-0.087002859 -0.17478953 0.82300001 3680304
-0.4899486 -0.20163621 0.95800006 9729147
-0.42165715 -0.19784762 0.94000006 14070738
-0.24977143 -0.19784762 0.94000006 16711422
-0.19068 -0.18564001 0.88200003 7098708
-0.18900001 -0.18564001 0.88200003 7098708
-0.12515143 -0.17616858 0.83700001 3544353
-0.12355714 -0.17616858 0.83700001 3347483
-0.10684286 -0.17490572 0.83100003 4071707
-0.10500667 -0.17448477 0.82900006 4137250
-0.1031781 -0.1740638 0.82700002 4006186
-0.10135715 -0.17364287 0.82500005 3940905
-0.099785723 -0.17364287 0.82500005 3744553
-0.097976193 -0.1732219 0.82300001 3613736
-0.096408576 -0.1732219 0.82300001 3416615
-0.093273334 -0.1732219 0.82300001 3284775
-0.091928579 -0.17364287 0.82500005 3350055
-0.090357147 -0.17364287 0.82500005 3415847
-0.088785723 -0.17364287 0.82500005 3481641
-0.4899486 -0.19981144 0.95800006 11113613
-0.48812383 -0.19981144 0.95800006 11048348
-0.4862991 -0.19981144 0.95800006 10982300
-0.4542219 -0.19543143 0.93700004 11834526
-0.41807622 -0.19605716 0.94000006 15523566
-0.24711432 -0.19397144 0.93000007 16711422
-0.18857144 -0.18354288 0.88000005 6901840
-0.18689524 -0.18354288 0.88000005 6902097
-0.12385239 -0.17499144 0.83900005 3413536
-0.12225429 -0.17499144 0.83900005 3282723
-0.12008096 -0.17415714 0.83500004 3283239
-0.1190581 -0.17499144 0.83900005 3282722
-0.1169 -0.17415714 0.83500004 3020062
-0.11530953 -0.17415714 0.83500004 2824994
-0.10842572 -0.17332287 0.83100003 3679280
-0.10684286 -0.17332287 0.83100003 3811379
-0.096408576 -0.17165428 0.82300001 2890529
-0.094840951 -0.17165428 0.82300001 2497825
-0.093500003 -0.17207143 0.82500005 2757665
-0.074274287 -0.16769142 0.80400002 1709079
-0.24578573 -0.19116668 0.92500007 16711422
-0.23842001 -0.18951334 0.91700006 16711422
-0.18900001 -0.18228 0.88200003 6639180
-0.12385239 -0.17339334 0.83900005 3676965
-0.11530953 -0.17256667 0.83500004 3151899
-0.11371905 -0.17256667 0.83500004 3284007
-0.11159144 -0.17174001 0.83100003 3415850
-0.11000858 -0.17174001 0.83100003 3481134
-0.10842572 -0.17174001 0.83100003 3548989
-0.074274287 -0.16616 0.80400002 1970965
-0.072742864 -0.16616 0.80400002 2299413
-0.45503336 -0.19145238 0.93500006 11571879
-0.41407144 -0.19145238 0.93500006 16049387
-0.24445714 -0.18838096 0.92000002 16711422
-0.18900001 -0.1806 0.88200003 6442314
-0.18732001 -0.1806 0.88200003 6376777
-0.18564001 -0.1806 0.88200003 6311243
-0.18396001 -0.1806 0.88200003 6376782
-0.072923817 -0.16503811 0.80600005 2430996
-0.07138858 -0.16503811 0.80600005 2627611
-0.45681432 -0.18967144 0.93500006 11640481
-0.18396001 -0.17892002 0.88200003 6046026
-0.071565717 -0.16390857 0.80800003 2627360
-0.52382767 -0.18829238 0.93700004 8352112
-0.5237143 -0.18889524 0.94000006 8549238
-0.49528286 -0.18628287 0.92700005 10126987
-0.49777621 -0.18789048 0.93500006 10061710
-0.49599528 -0.18789048 0.93500006 9996175
-0.49157146 -0.18688573 0.93000007 10193809
-0.48980004 -0.18688573 0.93000007 10456212
-0.48802862 -0.18688573 0.93000007 10522264
-0.48625717 -0.18688573 0.93000007 10653079
-0.18396001 -0.17724 0.88200003 5717829
-0.18228 -0.17724 0.88200003 5717573
-0.18019049 -0.1768381 0.88000005 5717574
-0.072097145 -0.16357523 0.81400001 2692632
-0.51823717 -0.18451715 0.92700005 8417903
-0.52025807 -0.18650763 0.93700004 8746621
-0.51847339 -0.18650763 0.93700004 8943485
-0.51668859 -0.18650763 0.93700004 9205885
-0.51380479 -0.18610953 0.93500006 9468542
-0.51202387 -0.18610953 0.93500006 9468799
-0.50860572 -0.18551239 0.93200004 9534848
-0.50574291 -0.18511429 0.93000007 9469314
-0.49704856 -0.18451715 0.92700005 9930117
-0.48625717 -0.18511429 0.93000007 10521238
-0.18019049 -0.17516191 0.88000005 5454142
-0.17810857 -0.17476381 0.87800002 5388350
-0.072185718 -0.16222382 0.81500006 2692368
-0.49704856 -0.18275143 0.92700005 9931656
-0.48448572 -0.18334286 0.93000007 10652569
-0.47939146 -0.18275143 0.92700005 10981271
-0.47762573 -0.18275143 0.92700005 11113110
-0.47586 -0.18275143 0.92700005 11113878
-0.4740943 -0.18275143 0.92700005 11179153
-0.47385719 -0.18334286 0.93000007 11244685
-0.47208574 -0.18334286 0.93000007 11376018
-0.47031432 -0.18334286 0.93000007 11179672
-0.46854287 -0.18334286 0.93000007 10982296
-0.17810857 -0.17309143 0.87800002 5125690
-0.17583334 -0.17250001 0.87500006 5060154
-0.17416668 -0.17250001 0.87500006 5059639
-0.17250001 -0.17250001 0.87500006 5124916
-0.17083335 -0.17250001 0.87500006 5190707
-0.142 -0.16796573 0.85200006 4731443
-0.14037715 -0.16796573 0.85200006 4862258
-0.13908 -0.16835999 0.85400003 4731185
-0.072362863 -0.16106571 0.81700003 2692372
-0.070633344 -0.16067144 0.81500006 3151639
-0.49963623 -0.18000953 0.92200005 9337441
-0.49612385 -0.18000953 0.92200005 9796730
-0.48448572 -0.18157144 0.93000007 10389658
-0.48115715 -0.18098572 0.92700005 10589082
-0.46854287 -0.18157144 0.93000007 10917014
-0.46175238 -0.17961904 0.92000002 10916503
-0.17083335 -0.17083335 0.87500006 4928305
-0.16916668 -0.17083335 0.87500006 4928049
-0.16750002 -0.17083335 0.87500006 4862512
-0.16545428 -0.17044286 0.87300003 4928048
-0.16341619 -0.17005238 0.87100005 4928048
-0.16175716 -0.17005238 0.87100005 4862000
-0.15973048 -0.16966191 0.86900002 4796206
-0.14429715 -0.16712382 0.85600007 4533807
-0.14233334 -0.16673334 0.85400003 4533551
-0.13908 -0.16673334 0.85400003 4468016
-0.13745333 -0.16673334 0.85400003 4402736
-0.070633344 -0.15911905 0.81500006 3151642
-0.49963623 -0.17825335 0.92200005 9601136
-0.49788004 -0.17825335 0.92200005 9666675
-0.46175238 -0.17786667 0.92000002 10850965
-0.43171716 -0.17922001 0.92700005 11638694
-0.42995146 -0.17922001 0.92700005 11835303
-0.4258762 -0.17825335 0.92200005 12032425
-0.16009811 -0.16839333 0.87100005 4730670
-0.15771145 -0.16762 0.86700004 4730669
-0.15570001 -0.16723335 0.86500007 4730412
-0.15405239 -0.16723335 0.86500007 4665644
-0.15240477 -0.16723335 0.86500007 4664875
-0.15075715 -0.16723335 0.86500007 4533290
-0.14859238 -0.16665334 0.86200005 4467754
-0.14660953 -0.16626666 0.86000001 4467754
-0.14463429 -0.16588001 0.85800004 4468007
-0.13777526 -0.16549335 0.85600007 4205355
-0.13614477 -0.16549335 0.85600007 4139820
-0.13420001 -0.16510667 0.85400003 4139566
-0.13257334 -0.16510667 0.85400003 4074033
-0.13094667 -0.16510667 0.85400003 4074028
-0.12932001 -0.16510667 0.85400003 4074023
-0.070806667 -0.15795334 0.81700003 3086871
-0.45924288 -0.17515714 0.91500002 10718611
-0.4235667 -0.17554002 0.91700006 12163751
-0.42182004 -0.17554002 0.91700006 12295591
-0.42007336 -0.17554002 0.91700006 12427444
-0.41832668 -0.17554002 0.91700006 12955842
-0.41567144 -0.17515714 0.91500002 13548740
-0.41302383 -0.1747743 0.91300005 13614278
-0.12992573 -0.16424572 0.85800004 4008230
-0.12799239 -0.16386287 0.85600007 4007719
-0.12606667 -0.16348 0.85400003 3941928
-0.12444 -0.16348 0.85400003 3875367
-0.074280955 -0.15716286 0.82100004 2561045
-0.072540008 -0.15678002 0.81900007 2889493
-0.070980005 -0.15678002 0.81900007 3021333
-0.12444 -0.16185333 0.85400003 3875874
-0.12252572 -0.16147429 0.85200006 3810339
-0.12090286 -0.16147429 0.85200006 3810340
-0.11872 -0.16071621 0.84800005 3810342
-0.11710477 -0.16071621 0.84800005 3810084
-0.074280955 -0.15559906 0.82100004 2757906
-0.43940002 -0.17073333 0.91000003 10915223
-0.43766668 -0.17073333 0.91000003 11308439
-0.43593335 -0.17073333 0.91000003 10324119
-0.43419999 -0.17073333 0.91000003 9339785
-0.43246669 -0.17073333 0.91000003 9406076
-0.43073335 -0.17073333 0.91000003 9461390
-0.11710477 -0.15910096 0.84800005 3810082
-0.11576191 -0.15947621 0.85000002 3678751
-0.11387429 -0.15910096 0.84800005 3612961
-0.11133238 -0.15778762 0.84100002 3547171
-0.10946953 -0.15741238 0.83900005 3546914
-0.077597149 -0.15441047 0.82300001 2626058
-0.076029524 -0.15441047 0.82300001 2560269
-0.074280955 -0.15403526 0.82100004 2757904
-0.52547139 -0.16992857 0.91500002 7627628
-0.52372861 -0.16992857 0.91500002 7758959
-0.52198571 -0.16992857 0.91500002 7955827
-0.50873339 -0.16900001 0.91000003 8615288
-0.10946953 -0.15581429 0.83900005 3678242
-0.10787144 -0.15581429 0.83900005 3809573
-0.10627334 -0.15581429 0.83900005 3940126
-0.077597149 -0.15284285 0.82300001 2625551
-0.45322004 -0.16598001 0.90300006 9799312
-0.10703333 -0.15531905 0.84500003 3612446
-0.1057981 -0.1558705 0.84800005 3481363
-0.093265712 -0.15384857 0.83700001 3284511
-0.09167143 -0.15384857 0.83700001 3284511
-0.090077139 -0.15384857 0.83700001 3283997
-0.088482857 -0.15384857 0.83700001 3283484
-0.07974191 -0.1523781 0.82900006 2823703
-0.077974282 -0.15201049 0.82700002 2823445
-0.44900003 -0.16335048 0.89800006 9798032
-0.44728953 -0.16335048 0.89800006 9929618
-0.44458666 -0.16298667 0.89600003 10060688
-0.1057981 -0.15425524 0.84800005 3285274
-0.10381429 -0.15370953 0.84500003 3284762
-0.10220476 -0.15370953 0.84500003 3415578
-0.095086671 -0.1526181 0.83900005 3546653
-0.093488574 -0.1526181 0.83900005 3546652
-0.088482857 -0.15225428 0.83700001 3349017
-0.086888574 -0.15225428 0.83700001 3349271
-0.085294284 -0.15225428 0.83700001 3349270
-0.083100006 -0.15116286 0.83100003 3349014
-0.081517145 -0.15116286 0.83100003 3152151
-0.07974191 -0.15079905 0.82900006 2955031
-0.44458666 -0.16128001 0.89600003 9929358
-0.44288 -0.16128001 0.89600003 10126221
-0.44117334 -0.16128001 0.89600003 10257292
-0.44044766 -0.16164002 0.89800006 10126732
-0.43873718 -0.16164002 0.89800006 10061196
-0.43605334 -0.16128001 0.89600003 10126989
-0.10220476 -0.1521 0.84500003 3350810
-0.10059524 -0.1521 0.84500003 3416349
-0.098751433 -0.15174001 0.84300005 3416096
-0.096915238 -0.15138 0.84100002 3416093
-0.095313333 -0.15138 0.84100002 3350554
-0.42145717 -0.15921715 0.89400005 10916752
-0.45568287 -0.15698572 0.89100003 9337979
-0.45398575 -0.15698572 0.89100003 9338234
-0.42145717 -0.1575143 0.89400005 9989246
-0.45340952 -0.15337144 0.88000005 9337725
-0.42163241 -0.15650858 0.89800006 8945557
-0.52017432 -0.15359144 0.89100003 7365225
-0.51847714 -0.15359144 0.89100003 7562351
-0.47460002 -0.15203999 0.88200003 6837113
-0.47184765 -0.15169525 0.88000005 7827584
-0.46910286 -0.15135047 0.87800002 8877438
-0.46849528 -0.15169525 0.88000005 8812156
-0.46788001 -0.15203999 0.88200003 8812924
-0.46514288 -0.15169525 0.88000005 8878461
-0.45676193 -0.15169525 0.88000005 9010043
-0.45508572 -0.15169525 0.88000005 9075324
-0.42163241 -0.15479811 0.89800006 10526106
-0.4138667 -0.15445334 0.89600003 12691380
-0.40986001 -0.15359144 0.89100003 13020347
-0.40816286 -0.15359144 0.89100003 13349563
-0.40646571 -0.15359144 0.89100003 13415611
0.38091907 -0.14393811 0.83500004 7694700
0.38250953 -0.14393811 0.83500004 7694444
0.38410002 -0.14393811 0.83500004 7694443
-0.52821332 -0.15274666 0.89600003 5069405
-0.52650666 -0.15274666 0.89600003 7102304
-0.52187145 -0.15189429 0.89100003 7232868
-0.52017432 -0.15189429 0.89100003 7364968
-0.4785524 -0.15001905 0.88000005 8484224
-0.47795999 -0.15036 0.88200003 8287609
-0.47460002 -0.15036 0.88200003 8550007
-0.46514288 -0.15001905 0.88000005 8812668
-0.45572382 -0.1496781 0.87800002 8878202
-0.42304096 -0.15359905 0.90100002 12099998
-0.41960859 -0.15359905 0.90100002 12297134
-0.41557336 -0.15274666 0.89600003 12428205
-0.40646571 -0.15189429 0.89100003 13546687
-0.40068001 -0.15036 0.88200003 13612995
-0.39583334 -0.14916667 0.87500006 13811399
-0.39416668 -0.14916667 0.87500006 14074056
-0.39474288 -0.15001905 0.88000005 14074569
-0.39217335 -0.1496781 0.87800002 14075858
-0.47640857 -0.14716287 0.87300003 8548984
-0.47628 -0.14868 0.88200003 8418676
-0.42304096 -0.15188286 0.90100002 12166563
-0.42132479 -0.15188286 0.90100002 12231847
-0.39217335 -0.14800572 0.87800002 14074834
-0.38827714 -0.14716287 0.87300003 14930909
-0.47531718 -0.14516667 0.87100005 8483188
-0.45750001 -0.14583334 0.87500006 8746364
-0.38827714 -0.1455 0.87300003 15063261
-0.38572857 -0.14516667 0.87100005 16050154
-0.38174286 -0.14202477 0.86200005 15788268
-0.47863525 -0.14184858 0.87100005 8285812
-0.47588095 -0.14152285 0.86900002 8285555
-0.37833717 -0.13973142 0.85800004 15986936
-0.37833717 -0.13809715 0.85800004 15986678
-0.37582478 -0.13777526 0.85600007 16445943
-0.37494665 -0.13582668 0.85400003 16446712
-0.43428382 -0.13217334 0.86200005 7822461
-0.43289146 -0.12962286 0.85600007 9403773
-0.37493432 -0.12765428 0.84300005 14667219
-0.37421429 -0.12795715 0.84500003 14274272
-0.37084094 -0.12735143 0.84100002 15388909
-0.45576191 -0.12709524 0.85000002 6250346
-0.44933429 -0.12574953 0.84100002 6185324
-0.37084094 -0.12574953 0.84100002 15853028
-0.36923906 -0.12574953 0.84100002 16645105
-0.36923906 -0.12414762 0.84100002 16710390
-0.36676288 -0.12385239 0.83900005 16711422
-0.4323667 -0.12138001 0.83300006 8482677
-0.43388289 -0.12225429 0.83900005 8614263
-0.43228477 -0.12225429 0.83900005 8745848
-0.43068671 -0.12225429 0.83900005 8811897
-0.43369147 -0.12356572 0.84800005 8942970
-0.43054762 -0.12312857 0.84500003 9008507
-0.42893809 -0.12312857 0.84500003 9074303
-0.42732859 -0.12312857 0.84500003 9009027
-0.43132859 -0.11950572 0.83100003 8416884
-0.36342382 -0.12008096 0.83500004 16711422
-0.4729248 -0.11290191 0.82900006 7430503
-0.47362003 -0.11344668 0.83300006 7299685
-0.47203338 -0.11344668 0.83300006 7299939
-0.47044668 -0.11344668 0.83300006 7365477
-0.38266191 -0.11099524 0.81500006 13351103
-0.4729248 -0.11132286 0.82900006 7167339
-0.47608286 -0.10974382 0.82900006 6773856
-0.47450384 -0.10974382 0.82900006 6904932
-0.4729248 -0.10974382 0.82900006 6970727
-0.45465812 -0.11106763 0.83900005 7168369
-0.45197999 -0.11080286 0.83700001 7430521
-0.38374284 -0.1077581 0.81400001 13088439
-0.47608286 -0.10816476 0.82900006 6839390
-0.45197999 -0.10920857 0.83700001 7495534
-0.47650954 -0.10632858 0.82700002 6773342
-0.47493428 -0.10632858 0.82700002 6905182
-0.45197999 -0.10761429 0.83700001 7495525
-0.43290004 -0.10530001 0.81900007 8022121
-0.43134004 -0.10530001 0.81900007 8021867
-0.42715618 -0.10465714 0.81400001 8152942
-0.42560571 -0.10465714 0.81400001 8284273
-0.42457622 -0.10478573 0.81500006 8350069
-0.42250475 -0.10465714 0.81400001 8417143
-0.3988286 -0.10414286 0.81000006 10980234
-0.39924762 -0.10465714 0.81400001 11179168
-0.37042668 -0.1044 0.81200004 14139333
-0.47808477 -0.10475334 0.82700002 6576221
-0.47650954 -0.10475334 0.82700002 6707805
-0.45089999 -0.10576668 0.83500004 7757149
-0.43924287 -0.10526 0.83100003 7039593
-0.40000001 -0.10133334 0.80000001 9668226
-0.40246096 -0.10234667 0.80800003 9604989
-0.40092191 -0.10234667 0.80800003 9541768
-0.39322665 -0.10234667 0.80800003 11508131
-0.36797145 -0.10260001 0.81000006 12175050
-0.36642858 -0.10260001 0.81000006 13353427
-0.36578667 -0.10285334 0.81200004 14536658
-0.36334288 -0.10260001 0.81000006 14864850
-0.36090669 -0.10234667 0.80800003 15193050
-0.35669908 -0.10158667 0.80200005 15523043
-0.44766003 -0.10342763 0.82900006 8019048
-0.44188672 -0.10392667 0.83300006 3957095
-0.39322665 -0.10080762 0.80800003 11442596
-0.39168763 -0.10080762 0.80800003 11705255
-0.37961334 -0.10005905 0.80200005 12297138
-0.35580954 -0.099809527 0.80000001 15587298
-0.44766003 -0.10184858 0.82900006 8349300
-0.44608098 -0.10184858 0.82900006 9206147
-0.44240859 -0.10209429 0.83100003 6052441
-0.37772 -0.09804 0.79800004 12428210
-0.44608098 -0.10026953 0.82900006 9926005
-0.44292289 -0.10026953 0.82900006 6970990
-0.40000001 -0.096761905 0.80000001 9864839
-0.43200001 -0.095238097 0.80000001 8153444
-0.44608098 -0.09869048 0.82900006 8809575
-0.44292289 -0.09869048 0.82900006 7365735
-0.40507144 -0.094642855 0.79500002 9272961
-0.40508002 -0.095000006 0.79800004 9404033
-0.4030543 -0.094880961 0.79700005 9469314
-0.40153623 -0.094880961 0.79700005 9600387
-0.40000001 -0.095238097 0.80000001 10454918
-0.35339999 -0.095000006 0.79800004 15588063
-0.35364383 -0.095476195 0.80200005 15588577
-0.3512381 -0.095238097 0.80000001 15589103
-0.34840289 -0.094880961 0.79700005 16121086
-0.44608098 -0.097111441 0.82900006 7694696
-0.44450191 -0.097111441 0.82900006 7760491
-0.40507144 -0.093128577 0.79500002 9141375
-0.4015238 -0.093714289 0.80000001 10390926
-0.37535337 -0.092894286 0.79300004 12757936
-0.34514382 -0.092894286 0.79300004 16711421
-0.3789905 -0.090807624 0.78800005 12166568
-0.37988478 -0.091383815 0.79300004 12298410
-0.37837431 -0.091383815 0.79300004 12429739
-0.37686384 -0.091383815 0.79300004 12561068
-0.34514382 -0.091383815 0.79300004 16711421
-0.3819924 -0.089306667 0.78800005 11770534
-0.38049144 -0.089306667 0.78800005 11903653
-0.44672668 -0.082113333 0.79100001 6904160
-0.4440943 -0.081905723 0.78900003 6969954
-0.41738668 -0.08138667 0.78400004 8219762
-0.41377145 -0.080971435 0.78000003 8154997
-0.43791428 -0.080097146 0.78600001 7101788
-0.43641713 -0.080097146 0.78600001 7101789
-0.41769239 -0.079383813 0.77900004 8086900
-0.4181 -0.077699997 0.77700001 8022126
-0.41175717 -0.077900007 0.77900004 8614773
0.3623924 -0.073600002 0.73600006 8353148
0.36379433 -0.073600002 0.73600006 8287355
-0.43994954 -0.076416194 0.77900004 6838109
-0.41982096 -0.075729519 0.77200001 7692906
-0.41835049 -0.075729519 0.77200001 7890537
-0.41850001 -0.07602381 0.77500004 8022121
-0.41175717 -0.076416194 0.77900004 8811378
0.35429335 -0.071413331 0.72800004 8484991
0.35568002 -0.071413331 0.72800004 8419453
0.36379433 -0.0721981 0.73600006 8222075
-0.40711334 -0.074355245 0.77300006 5334645
-0.40564099 -0.074355245 0.77300006 7106426
-0.39998573 -0.073585719 0.76500005 8943995
-0.39998573 -0.072128579 0.76500005 8943741
-0.057702858 -0.070525713 0.74800003 13408891
-0.35059527 -0.070119046 0.77500004 14729645
-0.35001999 -0.070299998 0.77700001 15057581
-0.34854001 -0.070299998 0.77700001 14992557
-0.34795335 -0.070480958 0.77900004 14994116
-0.34646955 -0.070480958 0.77900004 15258074
-0.34232861 -0.069938101 0.77300006 15586523
-0.33953333 -0.069666669 0.77000004 15655645
-0.33587143 -0.069214284 0.76500005 15784671
-0.38188761 -0.067137145 0.75800002 10191758
-0.38144764 -0.06731429 0.76000005 10388624
-0.34795335 -0.068997145 0.77900004 14798549
-0.33499333 -0.06758 0.76300001 15195101
-0.38188761 -0.065693334 0.75800002 10322830
-0.33499333 -0.066126667 0.76300001 14669790
-0.33266571 -0.065953337 0.76100004 15194593
-0.33266571 -0.064503811 0.76100004 15324900
-0.32716668 -0.063995242 0.75500005 15786732
-0.32443428 -0.063740954 0.75200003 16048878
-0.32443428 -0.062308576 0.75200003 16049647
-0.43819621 -0.061361905 0.75800002 5853010
-0.43848097 -0.061604768 0.76100004 5919056
-0.37241337 -0.057240006 0.74200004 10982297
-0.39378574 -0.056052383 0.74500006 9852023
-0.37241337 -0.055826671 0.74200004 11048091
-0.37806669 -0.054413334 0.74200004 10324376
-0.37382668 -0.054413334 0.74200004 10850205
-0.39926666 -0.052999999 0.74200004 8679540
-0.39838955 -0.053071432 0.74300003 8746616
-0.3969743 -0.053071432 0.74300003 8878204
-0.39396191 -0.052857142 0.74000001 8810368
-0.40068001 -0.051586669 0.74200004 8417138
-0.32357812 -0.049835242 0.73700005 15717595
-0.31815907 -0.045252379 0.73100001 14798275
-0.3362619 -0.043500002 0.72500002 13218490
-0.41144857 -0.042467616 0.73100001 6839646
-0.41061717 -0.042525716 0.73200005 6905182
-0.40922287 -0.042525716 0.73200005 7036255
-0.4078286 -0.042525716 0.73200005 7101793
-0.40643433 -0.042525716 0.73200005 7102052
-0.33672571 -0.042177141 0.72600001 13284280
0.32234764 -0.040376194 0.69500005 3156263
0.32367143 -0.040376194 0.69500005 3090726
0.32405999 -0.040260002 0.69300002 3090984
0.32538003 -0.040260002 0.69300002 3025194
-0.38650858 -0.040794283 0.72600001 8877177
-0.38512573 -0.040794283 0.72600001 9074557
-0.38057142 -0.040457144 0.72000003 9140098
-0.37630951 -0.040738095 0.72500002 9929593
-0.33672571 -0.040794283 0.72600001 13349816
0.31740001 -0.038771432 0.69000006 1713437
-0.31479716 -0.037557144 0.71700001 15063261
-0.39400858 -0.036191426 0.71700001 7694186
-0.39428574 -0.036342856 0.72000003 7825263
-0.3929143 -0.036342856 0.72000003 7957357
-0.39154288 -0.036342856 0.72000003 8154220
-0.38826004 -0.036292382 0.71900004 8417137
-0.36771718 -0.036292382 0.71900004 10060423
-0.31708571 -0.036140952 0.71600002 14272466
-0.30901909 -0.035838097 0.71000004 14474210
-0.3953743 -0.034825716 0.71700001 7627877
-0.39154288 -0.034971431 0.72000003 8088684
-0.38962954 -0.034922861 0.71900004 8285551
-0.32162571 -0.034825716 0.71700001 14141384
-0.32026002 -0.034825716 0.71700001 14402505
-0.31844953 -0.034777146 0.71600002 14336202
-0.3745648 -0.033553336 0.71900004 5796220
-0.32435715 -0.033459999 0.71700001 13810887
-0.32299143 -0.033459999 0.71700001 13613255
-0.30680001 -0.033040002 0.708 11173329
-0.38004285 -0.032183811 0.71900004 9927824
-0.37867334 -0.032183811 0.71900004 11173772
-0.37730384 -0.032183811 0.71900004 7170440
-0.3759343 -0.032183811 0.71900004 3234687
-0.3745648 -0.032183811 0.71900004 1723765
-0.32708856 -0.032094285 0.71700001 13678006
-0.32572284 -0.032094285 0.71700001 14203070
-0.30680001 -0.031691428 0.708 7733712
-0.3311857 -0.030728571 0.71700001 13480122
-0.32982001 -0.030728571 0.71700001 13349566
-0.32845429 -0.030728571 0.71700001 13219259
-0.32708856 -0.030728571 0.71700001 13876920
-0.30680001 -0.030342858 0.708 11573456
-0.30502 -0.030300001 0.70700002 14018272
-0.30367333 -0.030300001 0.70700002 14867952
-0.30232665 -0.030300001 0.70700002 15786220
-0.3568562 -0.027450476 0.70300001 9929610
-0.35551715 -0.027450476 0.70300001 9864074
-0.35417807 -0.027450476 0.70300001 9733003
-0.35283905 -0.027450476 0.70300001 10126732
-0.35283905 -0.026111428 0.70300001 10126734
-0.3515 -0.026111428 0.70300001 10717327
-0.35065907 -0.026148573 0.70400006 10652561
-0.35065907 -0.024807621 0.70400006 10521234
-0.3498143 -0.024842858 0.70500004 10587027
-0.34748286 -0.02477238 0.70300001 10652564
-0.35625333 -0.023133334 0.69400001 9667207
-0.34748286 -0.023433333 0.70300001 10587030
-0.34515905 -0.023366667 0.70100003 10718104
-0.34382382 -0.023366667 0.70100003 10784154
-0.34346572 -0.023433333 0.70300001 10849952
-0.34212667 -0.023433333 0.70300001 11243686
-0.34078762 -0.023433333 0.70300001 11638441
-0.34515905 -0.02203143 0.70100003 10718362
-0.32849333 -0.020489523 0.69400001 12495009
-0.27917999 -0.02046 0.69300002 16711422
-0.35631144 -0.017717144 0.68900001 983398
-0.35396859 -0.017665716 0.68700004 1920119
-0.30425718 -0.017742857 0.69000006 14402768
-0.30338192 -0.017768573 0.69100004 14665423
-0.30206573 -0.017768573 0.69100004 14534863
-0.30162001 -0.017820001 0.69300002 14402015
-0.3003 -0.017820001 0.69300002 15524079
-0.29898 -0.017820001 0.69300002 16711414
-0.29765999 -0.017820001 0.69300002 16579838
-0.29634002 -0.017820001 0.69300002 16447996
-0.29374287 -0.017742857 0.69000006 16381947
-0.2911143 -0.017742857 0.69000006 16381691
-0.36129335 -0.016333334 0.68600005 9271677
-0.36208573 -0.016428573 0.69000006 9864837
-0.3602486 -0.016404763 0.68900001 10526833
-0.35893619 -0.016404763 0.68900001 7617118
-0.35762382 -0.016404763 0.68900001 4718935
-0.30425718 -0.016428573 0.69000006 14205391
-0.36154285 -0.014982858 0.68400002 9075064
-0.31169048 -0.015092381 0.68900001 13349823
-0.3103781 -0.015092381 0.68900001 13548481
-0.30906573 -0.015092381 0.68900001 13548483
-0.30775332 -0.015092381 0.68900001 13548230
-0.30688575 -0.015114286 0.69000006 13613512
-0.30425718 -0.015114286 0.69000006 14073293
-0.36101428 -0.013660001 0.68300003 8877434
-0.31808284 -0.013660001 0.68300003 12822708
-0.31724572 -0.01368 0.68400002 12757171
-0.31418002 -0.013660001 0.68300003 12692401
-0.31471145 -0.013740001 0.68700004 12757684
-0.31340289 -0.013740001 0.68700004 12888247
-0.31300285 -0.01378 0.68900001 13019065
-0.30688575 -0.013800002 0.69000006 13613765
-0.30557147 -0.013800002 0.69000006 13744328
-0.38968575 -0.012485715 0.69000006 6903647
-0.38780856 -0.012467619 0.68900001 7036001
-0.38649619 -0.012467619 0.68900001 7167585
-0.33889812 -0.012359047 0.68300003 11307921
-0.33432665 -0.012286667 0.67900002 10521750
0.26182193 -0.011816191 0.65300006 3814710
0.26387143 -0.011852382 0.65500003 3814711
-0.33432665 -0.010993334 0.67900002 10324627
0.26057813 -0.010572381 0.65300006 3683378
0.26474002 -0.0093 0.65100002 3814706
0.26598001 -0.0093 0.65100002 3749169
0.26680955 -0.0068095243 0.65000004 3617841
0.26804763 -0.0068095243 0.65000004 3617329
0.26845714 -0.0067885718 0.648 3682867
0.26969141 -0.0067885718 0.648 3748149
0.27092573 -0.0067885718 0.648 3878960
0.21661714 -0.0043200003 0.648 4405592
0.21785143 -0.0043200003 0.648 4471888
0.21908571 -0.0043200003 0.648 4536902
0.22032 -0.0043200003 0.648 4470843
0.21661714 -0.0030857143 0.648 4737095
0.22032 -0.0030857143 0.648 4537144
0.22155429 -0.0030857143 0.648 4336669
-0.38164857 -0.0019114285 0.66900003 6115411
-0.37923717 -0.0019057144 0.66700006 6181460
-0.37910002 -0.0019114285 0.66900003 6378325
-0.37782571 -0.0019114285 0.66900003 6575704
-0.37655145 -0.0019114285 0.66900003 6707292
-0.35076001 -0.0019028571 0.66600001 9074300
-0.35106573 -0.0019114285 0.66900003 9205376
-0.31202859 -0.0019142857 0.67000002 12624555
-0.31307143 -0.0019285715 0.67500001 12626862
0.22790001 -0.0018428573 0.64500004 7231051
0.22912858 -0.0018428573 0.64500004 5977927
0.23035716 -0.0018428573 0.64500004 4798272
-0.3179343 -0.00063714286 0.66900003 11244193
-0.31330475 -0.00063809525 0.67000002 9742252
-0.31252861 0.00062380952 0.65500003 10915488
-0.3179343 0.00063714286 0.66900003 11177638
-0.31666002 0.00063714286 0.66900003 11439004
-0.31538573 0.00063714286 0.66900003 9472147
-0.31411144 0.00063714286 0.66900003 7500182
0.23050858 0.00061142858 0.64200002 4275252
-0.3743 0.0019000001 0.66500002 6904670
-0.28851429 0.0018857142 0.66000003 12363458
0.23050858 0.0018342858 0.64200002 4340529
0.27758574 0.0018142859 0.63500005 3288873
0.31047142 0.0018085715 0.63300002 3090980
-0.36126286 0.0044133337 0.66200006 7956333
-0.36000195 0.0044133337 0.66200006 8087664
-0.35874099 0.0044133337 0.66200006 8153457
-0.35802001 0.0044200001 0.66300005 8285298
-0.29228574 0.005657143 0.66000003 12494514
-0.29102859 0.005657143 0.66000003 12887731
-0.28977144 0.005657143 0.66000003 13346997
0.17384002 0.0054514292 0.63600004 4996418
0.17570858 0.0066419048 0.634 5655881
-0.29100764 0.011689524 0.64600003 12231862
0.27220953 0.0124 0.62 3289119
-0.28888002 0.014106668 0.64400005 12099496
0.21266478 0.013624762 0.62200004 4078650
0.21384953 0.013624762 0.62200004 4209212
0.21434285 0.013580953 0.62 4405564
0.26446575 0.01342762 0.61300004 3223339
-0.37127718 0.015547619 0.65300006 6707543
-0.36946666 0.015523811 0.65200001 6773849
-0.36878955 0.015547619 0.65300006 6904409
-0.36698285 0.015523811 0.65200001 6903898
-0.32833713 0.015285715 0.64200002 9403520
-0.32711428 0.015285715 0.64200002 9403262
-0.32690668 0.015333335 0.64400005 9469054
-0.32669142 0.015380953 0.64600003 9469567
-0.32646856 0.015428572 0.648 9469568
-0.32372856 0.015357144 0.64500004 9535105
-0.32250002 0.015357144 0.64500004 9600640
-0.31828287 0.015214287 0.63900006 9535360
0.2084381 0.014761904 0.62 4406326
0.20541143 0.015891429 0.61800003 4537138
-0.30103999 0.017565714 0.63600004 10521513
-0.30218571 0.017703811 0.64100003 11049402
-0.30237335 0.017786669 0.64400005 11646352
-0.30237335 0.019013334 0.64400005 11320233
-0.30161428 0.019042857 0.64500004 10191250
-0.30038574 0.019042857 0.64500004 9013129
0.19888002 0.01818667 0.61600006 4865597
0.20155334 0.018216191 0.61700004 4602941
-0.30161428 0.02027143 0.64500004 11046548
0.24538286 0.019234287 0.61200005 3617324
0.1927 0.020499999 0.61500001 4865855
0.24538286 0.020400003 0.61200005 3486001
0.24654858 0.020400003 0.61200005 3354924
0.24730951 0.020366667 0.611 3223847
0.25354287 0.020400003 0.61200005 3551533
0.25470859 0.020400003 0.61200005 3420204
0.25587431 0.020400003 0.61200005 3354412
0.25704002 0.020400003 0.61200005 3354156
0.27388954 0.020266667 0.60800004 3287332
0.03930667 0.021706669 0.61600006 14800355
0.15429334 0.021706669 0.61600006 5720901
0.19472572 0.02163619 0.61400002 4800058
0.21006761 0.021530475 0.611 4340534
0.21123143 0.021530475 0.611 4275001
0.25682858 0.021354286 0.60600001 3288617
0.27459526 0.021389525 0.60700005 3025443
0.27529716 0.021354286 0.60600001 3025698
0.042757142 0.022842858 0.61500001 15064811
0.043714289 0.022731431 0.61200005 15131112
0.27459526 0.022545716 0.60700005 3025446
-0.32424858 0.024482857 0.62700003 9677434
-0.31910574 0.02463905 0.63100004 8746330
-0.28342858 0.024990477 0.64000005 11244444
0.04458667 0.023740953 0.60800004 14734306
-0.28708574 0.026209526 0.64000005 10981785
-0.28676003 0.02629143 0.64200002 11114137
-0.28642669 0.026373334 0.64400005 11178905
-0.28520003 0.026373334 0.64400005 11310235
0.23335715 0.025928572 0.60500002 3945005
0.2544086 0.025842858 0.60300004 3485734
0.25598097 0.025885716 0.60400003 3485730
0.22721906 0.027036192 0.60400003 3748403
0.22836953 0.027036192 0.60400003 3813941
0.22952001 0.027036192 0.60400003 3879478
0.23067048 0.027036192 0.60400003 3945015
-0.31303713 0.028886668 0.61900002 8943996
-0.31185812 0.028886668 0.61900002 9075326
-0.31067905 0.028886668 0.61900002 9206913
-0.28283811 0.028933333 0.62 3539315
-0.28165713 0.028933333 0.62 6912137
-0.28638095 0.030114286 0.62 4456816
-0.30832094 0.03124476 0.61900002 9075330
-0.30714193 0.03124476 0.61900002 9206661
-0.2665 0.031042857 0.61500001 12097183
-0.26532856 0.031042857 0.61500001 12560565
-0.26458669 0.031093335 0.61600006 13549770
0.22000001 0.030285714 0.60000002 3419941
0.055243813 0.031323813 0.59800005 8219501
0.056571428 0.031428572 0.60000002 8153967
0.17200001 0.031428572 0.60000002 4998212
0.059151433 0.032734286 0.60300004 8483444
0.060300004 0.032734286 0.60300004 8548982
0.061346676 0.032680001 0.60200006 8614260
0.068226673 0.032680001 0.60200006 8088686
0.069258094 0.032625712 0.60100001 8088944
0.070520006 0.032680001 0.60200006 8154222
0.071666673 0.032680001 0.60200006 8088428
0.07281334 0.032680001 0.60200006 8088174
0.14181143 0.032462858 0.59800005 5983824
0.27936667 0.032299999 0.59500003 2631199
0.28050002 0.032299999 0.59500003 2498838
0.28163335 0.032299999 0.59500003 2366477
0.2827667 0.032299999 0.59500003 2236445
0.061346676 0.033826668 0.60200006 8482417
0.062181905 0.033658098 0.59900004 8417137
0.045900002 0.034566667 0.59500003 13417917
0.047033336 0.034566667 0.59500003 13418429
0.048166666 0.034566667 0.59500003 11374781
0.049300004 0.034566667 0.59500003 9337236
0.050348576 0.034508571 0.59400004 8741738
0.051480003 0.034508571 0.59400004 8153457
0.053833336 0.034566667 0.59500003 8680309
0.082028575 0.034508571 0.59400004 7562853
0.083160006 0.034508571 0.59400004 7431014
0.084007621 0.034392379 0.59200001 7495782
0.084991433 0.034334287 0.59100002 7627107
0.086262859 0.034392379 0.59200001 7562080
0.088219054 0.035400003 0.59000003 7693412
0.14676668 0.035700001 0.59500003 5787468
0.14790002 0.035700001 0.59500003 5656140
0.20172381 0.035400003 0.59000003 4471364
-0.31558096 0.037638098 0.60800004 8613496
-0.31390575 0.037576191 0.60700005 8679290
0.1071 0.036833335 0.59500003 7167322
0.10823333 0.036833335 0.59500003 7101788
0.10899906 0.036709525 0.59300005 7102303
0.11012858 0.036709525 0.59300005 7102302
0.1112581 0.036709525 0.59300005 7036510
0.1129562 0.036895238 0.59600002 6970717
0.11503334 0.036833335 0.59500003 7101276
0.11616667 0.036833335 0.59500003 6970461
0.1173 0.036833335 0.59500003 6904411
0.11896381 0.036647618 0.59200001 6576216
0.1988 0.036400001 0.588 2627111
-0.31621811 0.038732383 0.60700005 8482679
0.1129562 0.038030475 0.59600002 6970716
0.11390001 0.037966669 0.59500003 6970204
0.19633526 0.038377147 0.58400005 1835289
0.20405239 0.038574286 0.58700001 4669256
-0.32190001 0.041180003 0.60900003 8220016
-0.32021335 0.041112382 0.60800004 8154739
-0.31905526 0.041112382 0.60800004 8285815
0.20628858 0.039692383 0.58700001 4273974
-0.29231146 0.04192286 0.60300004 9600899
-0.29116285 0.04192286 0.60300004 9600897
-0.2900143 0.04192286 0.60300004 9600899
0.16660286 0.040949523 0.58900005 5260608
0.16772477 0.040949523 0.58900005 5260607
0.20628858 0.040810477 0.58700001 4274230
0.20964286 0.040810477 0.58700001 4273973
0.21076097 0.040810477 0.58700001 4273978
-0.29363143 0.042928573 0.60100001 9469827
-0.30379716 0.044220004 0.60300004 8746359
0.13626668 0.042826667 0.58400005 5919307
0.13761429 0.0429 0.58500004 5919305
-0.30379716 0.045368575 0.60300004 9140091
-0.28742859 0.045142859 0.60000002 9535365
0.040462855 0.043788571 0.58200002 8615038
0.041428573 0.043638099 0.58000004 8811645
0.050266668 0.043638099 0.58000004 8482925
-0.3416543 0.046825718 0.60700005 6773337
-0.3021467 0.046440005 0.60200006 9731965
-0.30100003 0.046440005 0.60200006 9993602
-0.29885715 0.046285715 0.60000002 9797766
-0.29771429 0.046285715 0.60000002 9666435
-0.29657146 0.046285715 0.60000002 9535360
-0.28742859 0.046285715 0.60000002 9469060
-0.28628573 0.046285715 0.60000002 9469062
-0.2856181 0.046362858 0.60100001 9796744
-0.28447333 0.046362858 0.60100001 10189962
-0.28238571 0.046208575 0.59900004 9993612
0.033404768 0.044357147 0.57500005 8942708
0.053858094 0.044974286 0.583 5392722
0.054874286 0.044897143 0.58200002 2179422
-0.29885715 0.047428574 0.60000002 7830915
0.035595242 0.045452382 0.57500005 8812151
0.036754288 0.045531429 0.57600003 8746616
0.05650286 0.045531429 0.57600003 1704324
0.057700001 0.04561048 0.57700002 5580436
0.059104767 0.045847621 0.58000004 9486210
0.059104767 0.046952382 0.58000004 9676673
0.059794288 0.046628572 0.57600003 10798731
0.10863144 0.046871431 0.57900006 6707543
0.10973429 0.046871431 0.57900006 6576469
0.11083715 0.046871431 0.57900006 6445395
0.11194001 0.046871431 0.57900006 6378823
0.11304287 0.046871431 0.57900006 6049083
0.16841145 0.046628572 0.57600003 4997687
0.17039144 0.046871431 0.57900006 4931888
0.17149431 0.046871431 0.57900006 4865847
0.17289524 0.046952382 0.58000004 4800062
0.17400001 0.046952382 0.58000004 4732715
0.17510478 0.046952382 0.58000004 4469017
0.17590573 0.046871431 0.57900006 4274740
0.1792143 0.046871431 0.57900006 5194598
0.022491429 0.047725718 0.57600003 9206650
0.023670476 0.047891427 0.57800001 9206394
0.024642859 0.047642861 0.57500005 9074811
0.025782859 0.047725718 0.57600003 8943738
0.026833337 0.047642861 0.57500005 9009273
0.02788 0.047559999 0.574 9075068
0.17590573 0.047974288 0.57900006 4669756
0.1770086 0.047974288 0.57900006 4932423
0.022296192 0.04839905 0.57100004 9403772
0.02788 0.048653331 0.574 8943226
0.028973334 0.048653331 0.574 8943486
0.028973334 0.049746666 0.574 9009532
0.030119048 0.049833339 0.57500005 9076858
0.031214288 0.049833339 0.57500005 7699064
0.094408579 0.050751429 0.57300001 5136226
0.095833339 0.050928578 0.57500005 9657444
0.17891334 0.050574288 0.57100004 4932149
0.18031621 0.05066286 0.57200003 4931898
0.18140572 0.05066286 0.57200003 4997439
0.18249525 0.05066286 0.57200003 5128253
0.03752286 0.051661909 0.57100004 8747657
0.038610481 0.051661909 0.57100004 8680576
0.039628576 0.051571433 0.57000005 8680311
0.039628576 0.052657146 0.57000005 8877179
0.039628576 0.05374286 0.57000005 9008767
0.073980004 0.053460002 0.56700003 7693412
0.21754286 0.054251429 0.56400001 3813935
-0.28183812 0.057483811 0.58600003 8745333
-0.28072193 0.057483811 0.58600003 8680053
-0.27960572 0.057483811 0.58600003 8680565
-0.26328573 0.05709143 0.58200002 6499127
-0.26172668 0.056993335 0.58100003 3670304
-0.26151714 0.057189524 0.583 4198409
-0.26040667 0.057189524 0.583 4726590
-0.25929621 0.057189524 0.583 6902899
-0.25685716 0.056895241 0.58000004 9144964
-0.027491432 0.055521909 0.56600004 11246775
-0.026413336 0.055521909 0.56600004 10913441
0.22037429 0.055227622 0.56300002 3420464
0.22251906 0.055227622 0.56300002 3551018
-0.023097143 0.056400001 0.56400001 10385551
0.19322097 0.056200001 0.56200004 4537142
0.19463715 0.056299999 0.56300002 4536885
0.19605714 0.056400001 0.56400001 4405811
0.1967819 0.056299999 0.56300002 4339508
-0.029542858 0.057474285 0.56400001 10513534
0.014502858 0.057474285 0.56400001 12745348
0.015577144 0.057474285 0.56400001 11239045
0.1978543 0.05737238 0.56300002 4208438
0.19822001 0.057168573 0.56100005 4077109
0.21135524 0.056964766 0.55900002 3880494
0.012332381 0.058444764 0.56300002 1331293
0.2419924 0.057718102 0.55600005 2629145
0.24411051 0.057718102 0.55600005 1248009
0.24516957 0.057718102 0.55600005 266773
0.24622861 0.057718102 0.55600005 1316896
0.0091152377 0.059517145 0.56300002 5243137
0.010205715 0.059622858 0.56400001 4082433
0.1296 0.0592 0.56 8231489
-0.31376287 0.062311437 0.57900006 7233127
-0.31266004 0.062311437 0.57900006 7561068
-0.31101906 0.062203813 0.57800001 7888743
-0.30991811 0.062203813 0.57800001 7626594
-0.30881715 0.062203813 0.57800001 7429731
0.0058876192 0.06048191 0.56200004 10391419
0.0069828574 0.060697146 0.56400001 9468784
0.008042858 0.060589526 0.56300002 8537671
0.12769429 0.06037429 0.56100005 3884353
-0.31432191 0.06330476 0.57800001 7233125
-0.045576192 0.061661907 0.56300002 6292302
-0.044424765 0.061552387 0.56200004 7358875
-0.043277148 0.061442863 0.56100005 8425336
0.0048171435 0.061552387 0.56200004 9866368
0.01641524 0.060895242 0.55600005 9468793
-0.011120002 0.061954293 0.55600005 10850195
-0.010097143 0.062177144 0.55800003 10653335
0.0026476192 0.061954293 0.55600005 9861767
0.10643429 0.061954293 0.55600005 6510167
0.10788 0.062177144 0.55800003 6444376
0.10952858 0.062511437 0.56100005 6378842
0.1104 0.062399995 0.56 6378834
0.11086953 0.062065721 0.55700004 6247242
0.11172953 0.061954293 0.55600005 6116428
0.15726858 0.061954293 0.55600005 5063999
-0.28500003 0.064600006 0.57000005 4135492
-0.28441241 0.064713337 0.57100004 4664629
-0.28114954 0.064713337 0.57100004 8355700
-0.27957144 0.064600006 0.57000005 8812668
-0.074797146 0.063126668 0.55700004 15522018
-0.013214285 0.062899999 0.55500001 8622481
-0.012179049 0.063013345 0.55600005 8555400
-0.0079428582 0.063013345 0.55600005 10325649
-0.0068838103 0.063013345 0.55600005 10324872
-0.0058247624 0.063013345 0.55600005 10257536
0.017505715 0.063126668 0.55700004 9665407
0.018533334 0.063013345 0.55600005 9468031
0.021671429 0.062899999 0.55500001 9272191
0.10537525 0.063013345 0.55600005 3822165
0.11172953 0.063013345 0.55600005 6248015
0.11197715 0.06256 0.55200005 6313552
-0.07678096 0.064072385 0.55600005 15457511
-0.0058247624 0.064072385 0.55600005 10060420
-0.0047485717 0.063841909 0.55400002 9995913
-0.0036933336 0.063841909 0.55400002 10192526
-0.0026333334 0.063726671 0.55300003 10389648
0.15220667 0.063726671 0.55300003 5260356
0.15353714 0.063841909 0.55400002 5260354
0.15459238 0.063841909 0.55400002 5260096
-0.078757145 0.065014288 0.55500001 15590121
-0.077840008 0.065131433 0.55600005 15129324
-0.071357146 0.065014288 0.55500001 9878463
0.057406671 0.064780004 0.55300003 7693666
0.058460001 0.064780004 0.55300003 7628131
0.059405722 0.064662859 0.55200005 7627876
0.15220667 0.064780004 0.55300003 5260352
-0.00052380952 0.065476187 0.55000001 10325131
0.00052571431 0.065714292 0.55200005 9928582
0.059405722 0.065714292 0.55200005 7562340
0.060238093 0.065476187 0.55000001 7562084
0.10059334 0.065833338 0.55300003 6046771
0.10164667 0.065833338 0.55300003 3146769
0.14928572 0.065476187 0.55000001 5457987
0.15929143 0.065714292 0.55200005 4800562
0.1613943 0.065714292 0.55200005 3085352
0.16244572 0.065714292 0.55200005 1573149
0.16590001 0.065833338 0.55300003 5066320
0.16695334 0.065833338 0.55300003 5133165
-0.31321144 0.068700954 0.56800002 6707803
-0.3137781 0.069063812 0.57100004 6773339
-0.029071428 0.067128569 0.55500001 11770520
-0.013142858 0.066765718 0.55200005 3342603
0.054700006 0.066160962 0.54700005 7561828
0.10059334 0.066886671 0.55300003 6247230
-0.31429332 0.069782861 0.56800002 6510682
-0.2480619 0.069414288 0.565 2638696
-0.24611145 0.069168575 0.56300002 6318995
-0.06861905 0.067571431 0.55000001 11695450
-0.067571431 0.067571431 0.55000001 14003855
-0.066523805 0.067571431 0.55000001 14804932
-0.014194286 0.067817152 0.55200005 8403763
-0.0036600002 0.067448579 0.54900002 10126988
0.064077146 0.067202859 0.54700005 7299428
0.18318857 0.067325711 0.54800004 4274997
0.1842324 0.067325711 0.54800004 4340281
0.1852762 0.067325711 0.54800004 4471609
0.021398097 0.068369523 0.54800004 8549246
0.022441905 0.068369523 0.54800004 8416895
0.023485716 0.068369523 0.54800004 8483457
0.024529526 0.068369523 0.54800004 8549245
0.025573334 0.068369523 0.54800004 8615290
0.026617145 0.068369523 0.54800004 8615801
0.027660955 0.068369523 0.54800004 8680825
0.028704762 0.068369523 0.54800004 8746360
0.2121543 0.067620955 0.54200006 3617069
-0.31537524 0.071946666 0.56800002 6313303
