# .PCD v0.7 - Point Cloud Data file format
VERSION 0.7
FIELDS x y z rgba
SIZE 4 4 4 4
TYPE F F F U
COUNT 1 1 1 1
WIDTH 1155
HEIGHT 1
VIEWPOINT 0 0 0 1 0 0 0
POINTS 1155
DATA ascii
0.30473337 -0.46891621 1.3060001 5655628
0.29498857 -0.45024574 1.2540001 5656140
0.29737714 -0.45024574 1.2540001 5656397
0.29976574 -0.45024574 1.2540001 5722191
0.32116285 -0.45347714 1.263 5327913
0.38249621 -0.45204097 1.2590001 1116681
0.38489428 -0.45204097 1.2590001 985355
0.51912004 -0.44378287 1.2360001 590851
-0.29613242 -0.46464288 1.3010001 6114895
0.28782287 -0.44785717 1.2540001 5983302
0.2890543 -0.44607145 1.2490001 5983304
0.28933331 -0.44285715 1.24 5852234
0.29498857 -0.44785717 1.2540001 5786700
0.29857048 -0.44607145 1.2490001 5851982
0.29878095 -0.44285715 1.24 5786190
0.30114287 -0.44285715 1.24 5721417
0.30472857 -0.44464284 1.245 5654851
0.32116285 -0.45107141 1.263 5458740
0.36756286 -0.44607145 1.2490001 1116936
0.36727619 -0.44285715 1.24 1116937
0.36963809 -0.44285715 1.24 1116939
0.37470001 -0.44607145 1.2490001 1182218
0.37707907 -0.44607145 1.2490001 1116682
0.37945813 -0.44607145 1.2490001 1116681
0.44938672 -0.44000003 1.2320001 919556
0.45173335 -0.44000003 1.2320001 722947
0.45555431 -0.4414286 1.2360001 592131
0.45790857 -0.4414286 1.2360001 526852
0.46026289 -0.4414286 1.2360001 526851
0.46112004 -0.44000003 1.2320001 526595
0.4634667 -0.44000003 1.2320001 591880
0.50805336 -0.44000003 1.2320001 656391
0.51912004 -0.4414286 1.2360001 591107
-0.31578192 -0.46926954 1.3210001 6377809
-0.31208003 -0.46749336 1.3160001 6377810
-0.29746285 -0.46038857 1.296 6443345
-0.29613242 -0.46216479 1.3010001 6377808
0.30472857 -0.44227144 1.245 5786442
0.3188743 -0.4454686 1.2540001 5589567
0.31998193 -0.44369239 1.2490001 5524284
0.32236099 -0.44369239 1.2490001 5524535
0.32239997 -0.44049522 1.24 5523507
0.32371432 -0.43907431 1.2360001 5522729
0.32501337 -0.43765336 1.2320001 5063712
0.32736003 -0.43765336 1.2320001 4670497
0.43911526 -0.4344562 1.223 985361
0.44144478 -0.4344562 1.223 1182219
-0.027578095 -0.44484669 1.2590001 10454925
-0.025180001 -0.44484669 1.2590001 10454670
-0.022781907 -0.44484669 1.2590001 10454160
0.32736003 -0.4353067 1.2320001 5457710
0.32836857 -0.43354005 1.2270001 5458476
0.33070573 -0.43354005 1.2270001 5455388
0.42703906 -0.44131336 1.2490001 919819
0.4312591 -0.4289467 1.2140001 788745
0.46008098 -0.4321267 1.223 722693
0.46241048 -0.4321267 1.223 722694
0.46474001 -0.4321267 1.223 722694
0.46706957 -0.4321267 1.223 657159
0.46939906 -0.4321267 1.223 657158
0.47327149 -0.43354005 1.2270001 657157
0.47560862 -0.43354005 1.2270001 722692
0.54394388 -0.4321267 1.223 656387
0.55246294 -0.42612001 1.2060001 328706
-0.39100286 -0.45228857 1.2870001 6640980
-0.38855141 -0.45228857 1.2870001 6640724
-0.38119715 -0.45228857 1.2870001 6640727
-0.33216858 -0.45228857 1.2870001 6969430
-0.017985715 -0.44244859 1.2590001 10651797
-0.015525714 -0.44069144 1.2540001 10784660
-0.013189524 -0.44244859 1.2590001 10850196
-0.010791428 -0.44244859 1.2590001 10915731
-0.0083600003 -0.44069144 1.2540001 10783634
0.029857146 -0.44069144 1.2540001 9468801
0.30266002 -0.43120289 1.2270001 5786441
0.33070573 -0.43120289 1.2270001 5458980
0.33304289 -0.43120289 1.2270001 4998418
0.39434287 -0.43436572 1.2360001 920585
0.39669716 -0.43436572 1.2360001 985867
0.41788575 -0.43436572 1.2360001 920070
0.42024001 -0.43436572 1.2360001 919810
0.42396191 -0.43577144 1.24 919819
0.42839146 -0.42839146 1.2190001 854037
0.43071336 -0.42839146 1.2190001 853519
0.4312591 -0.42663431 1.2140001 722953
0.54860288 -0.42979714 1.223 394247
0.55093241 -0.42979714 1.223 328714
-0.38119715 -0.44983715 1.2870001 6837593
-0.37874573 -0.44983715 1.2870001 6837592
-0.36750668 -0.44808954 1.2820001 6903641
-0.33320093 -0.45123523 1.291 7297627
-0.32971713 -0.44983715 1.2870001 7363162
-0.32726574 -0.44983715 1.2870001 7297625
0.33304289 -0.42886576 1.2270001 5391401
0.33538005 -0.42886576 1.2270001 5325863
0.34342289 -0.42152572 1.2060001 853011
0.34571999 -0.42152572 1.2060001 1180952
0.41653338 -0.43061337 1.2320001 920071
0.49831817 -0.42432192 1.2140001 919555
-0.37580287 -0.44390953 1.2770001 7101019
-0.3733705 -0.44390953 1.2770001 7035226
0.33312571 -0.4178381 1.202 5524786
0.33653146 -0.41922858 1.2060001 4997150
0.33995238 -0.42061907 1.21 4535320
0.34225717 -0.42061907 1.21 3808530
0.40082005 -0.4265286 1.2270001 1117444
0.40883145 -0.42513812 1.223 855049
0.41349047 -0.42513812 1.223 920072
0.52949148 -0.41922858 1.2060001 525571
-0.14716573 -0.32773715 0.94800007 16437423
0.21709812 -0.42142576 1.2190001 7627873
0.51399809 -0.41554859 1.202 460547
0.52027148 -0.40967146 1.1850001 591107
-0.32243428 -0.43595049 1.268 8021605
-0.32001904 -0.43595049 1.268 7955812
-0.31760383 -0.43595049 1.268 7824228
-0.31518856 -0.43595049 1.268 7694180
-0.11665238 -0.31968096 0.93500006 14987945
0.41698194 -0.40789241 1.1930001 919818
0.42066002 -0.40926 1.197 1050891
0.42293999 -0.40926 1.197 1247497
0.4269962 -0.41096953 1.202 1050888
0.52076477 -0.40378955 1.1810001 656642
-0.11272763 -0.31688002 0.93200004 15052449
-0.11071429 -0.31620002 0.93000007 15051938
-0.10894287 -0.31620002 0.93000007 14986403
-0.10717143 -0.31620002 0.93000007 14920867
0.40789241 -0.40562004 1.1930001 1116677
0.41470957 -0.40562004 1.1930001 985608
0.41698194 -0.40562004 1.1930001 919818
0.4337019 -0.40425998 1.189 854278
-0.34490287 -0.41788575 1.2360001 8086105
-0.3400543 -0.4148429 1.2270001 8413782
-0.33771718 -0.4148429 1.2270001 8808024
-0.17308572 -0.31510478 0.93200004 16711375
-0.10740191 -0.31510478 0.93200004 14920607
-0.10562667 -0.31510478 0.93200004 14788767
-0.091228582 -0.3144286 0.93000007 14330527
-0.089649528 -0.31510478 0.93200004 14330271
-0.087685719 -0.3144286 0.93000007 14330015
-0.085914291 -0.3144286 0.93000007 14395553
-0.084142864 -0.3144286 0.93000007 14198946
-0.082371436 -0.3144286 0.93000007 14002082
0.36227143 -0.40064287 1.1850001 2491931
0.40515715 -0.40064287 1.1850001 1116935
0.40878952 -0.40199524 1.189 1117192
-0.35804671 -0.41990194 1.2490001 9590098
-0.17625715 -0.31265715 0.93000007 16711422
-0.1054 -0.31265715 0.93000007 14789274
-0.10362858 -0.31265715 0.93000007 14723483
-0.091228582 -0.31265715 0.93000007 14396056
-0.082371436 -0.31265715 0.93000007 13936273
-0.080339998 -0.31164858 0.92700005 13935755
-0.078828573 -0.31265715 0.93000007 13935501
-0.076808572 -0.31164858 0.92700005 13804175
-0.075042859 -0.31164858 0.92700005 13607319
0.030908573 -0.40410095 1.202 12954032
0.12838952 -0.40107527 1.1930001 10716551
0.16985999 -0.40242001 1.197 8747891
0.17156476 -0.40107527 1.1930001 8747635
0.1732543 -0.39973047 1.189 8745844
0.17551905 -0.39973047 1.189 8744056
0.17838192 -0.40107527 1.1930001 8480125
0.39254194 -0.39704099 1.1810001 1117448
0.49377051 -0.39704099 1.1810001 656643
-0.35546666 -0.41451427 1.24 11293555
-0.35310477 -0.41451427 1.24 11492726
-0.34848002 -0.41184002 1.2320001 11756407
-0.34613335 -0.41184002 1.2320001 11758200
-0.34378672 -0.41184002 1.2320001 11823988
-0.33661622 -0.40883145 1.223 12286326
-0.29836479 -0.40749434 1.2190001 16245964
-0.29604289 -0.40749434 1.2190001 16246994
-0.29372096 -0.40749434 1.2190001 16247256
-0.29139906 -0.40749434 1.2190001 16378591
-0.28907716 -0.40749434 1.2190001 16574415
-0.28675526 -0.40749434 1.2190001 16639166
-0.28443336 -0.40749434 1.2190001 16701364
-0.18000953 -0.30821145 0.92200005 16711421
-0.17825335 -0.30821145 0.92200005 16711422
-0.10362858 -0.31088573 0.93000007 14788762
-0.10152857 -0.30988288 0.92700005 14656922
-0.099762864 -0.30988288 0.92700005 14591639
-0.097785726 -0.30921429 0.92500007 14526355
-0.096023813 -0.30921429 0.92500007 14460821
-0.094261907 -0.30921429 0.92500007 14395288
-0.092700005 -0.30988288 0.92700005 14395543
-0.090934284 -0.30988288 0.92700005 14461591
-0.075042859 -0.30988288 0.92700005 13737619
-0.073277146 -0.30988288 0.92700005 13671831
0.11514 -0.40013999 1.197 11507601
0.11702763 -0.39880291 1.1930001 11376021
0.11930001 -0.39880291 1.1930001 11310233
0.45089999 -0.39078 1.169 788489
0.45535332 -0.39078 1.169 1116426
0.45758 -0.39078 1.169 1443846
0.51814765 -0.38944289 1.1650001 460035
0.52036667 -0.38944289 1.1650001 525316
-0.33551526 -0.40517241 1.2190001 14470051
-0.33319336 -0.40517241 1.2190001 14666923
-0.31099144 -0.40650192 1.223 16182506
-0.30866191 -0.40650192 1.223 16314091
-0.30633238 -0.40650192 1.223 16314349
-0.30300859 -0.40517241 1.2190001 16314606
-0.29945335 -0.40351051 1.2140001 16314607
-0.29714096 -0.40351051 1.2140001 16314607
-0.28326669 -0.40351051 1.2140001 16579831
-0.2809543 -0.40351051 1.2140001 16514553
-0.18000953 -0.30645525 0.92200005 16711422
-0.071357146 -0.30745238 0.92500007 13737871
-0.057747621 -0.30080476 0.90500003 13474698
-0.05602381 -0.30080476 0.90500003 13342092
-0.054480001 -0.30180192 0.90800005 13209743
-0.052866668 -0.30246666 0.91000003 13143182
-0.051133335 -0.30246666 0.91000003 13012366
-0.044199999 -0.30246666 0.91000003 12951461
-0.0286 -0.30246666 0.91000003 13092808
-0.026866667 -0.30246666 0.91000003 13223627
-0.025216192 -0.30346382 0.91300005 13354696
-0.023477143 -0.30346382 0.91300005 13354181
0.021750478 -0.39952192 1.202 13876165
0.35738003 -0.38855335 1.169 6246227
0.3583762 -0.38722384 1.1650001 6116683
0.36059526 -0.38722384 1.1650001 5655108
0.36281431 -0.38722384 1.1650001 5128245
0.36503336 -0.38722384 1.1650001 4598823
0.36851332 -0.38855335 1.169 4069398
0.37074 -0.38855335 1.169 3608070
0.37296668 -0.38855335 1.169 3212561
0.44935718 -0.38722384 1.1650001 657417
0.4515762 -0.38722384 1.1650001 657162
0.45444858 -0.38589427 1.161 1116678
0.4572905 -0.38456479 1.1570001 788226
0.46267146 -0.38722384 1.1650001 722692
0.5040257 -0.38323525 1.153 590854
0.50622189 -0.38323525 1.153 591110
0.51500666 -0.38323525 1.153 525318
0.5122686 -0.37957907 1.1420001 590852
0.51939905 -0.38323525 1.153 591107
0.51661903 -0.37957907 1.1420001 591107
0.5187943 -0.37957907 1.1420001 590851
-0.33182669 -0.40119812 1.2140001 16640724
-0.32951429 -0.40119812 1.2140001 16641488
-0.32720193 -0.40119812 1.2140001 16642252
-0.32488954 -0.40119812 1.2140001 16708567
-0.32257715 -0.40119812 1.2140001 16578274
-0.31332764 -0.40119812 1.2140001 16314607
-0.31229621 -0.40285051 1.2190001 16183280
-0.30997431 -0.40285051 1.2190001 16183024
-0.18157144 -0.30734289 0.93000007 16711422
-0.071538098 -0.29908094 0.90500003 13803154
-0.070199996 -0.30073336 0.91000003 13868686
-0.068466663 -0.30073336 0.91000003 13737867
-0.066366673 -0.29908094 0.90500003 13672070
-0.064500004 -0.29842004 0.90300006 13606274
-0.062780008 -0.29842004 0.90300006 13606529
-0.061060004 -0.29842004 0.90300006 13606784
-0.059340004 -0.29842004 0.90300006 13606019
-0.057747621 -0.29908094 0.90500003 13343366
-0.043957144 -0.29908094 0.90500003 12487563
-0.042233333 -0.29908094 0.90500003 12224142
-0.039000001 -0.30073336 0.91000003 11829906
-0.037266668 -0.30073336 0.91000003 11699091
-0.033800002 -0.30073336 0.91000003 11567503
-0.032066669 -0.30073336 0.91000003 11569297
-0.030333333 -0.30073336 0.91000003 11636627
-0.0286 -0.30073336 0.91000003 11705243
-0.023168571 -0.29775906 0.90100002 12428973
-0.021333335 -0.29610667 0.89600003 12692661
-0.019517142 -0.29445428 0.89100003 12956350
-0.017820001 -0.29445428 0.89100003 13220284
0.017099999 -0.39557999 1.197 14599629
0.019380001 -0.39557999 1.197 14401993
0.02166 -0.39557999 1.197 14271175
0.048364766 -0.39029241 1.1810001 13744316
0.38672855 -0.38897046 1.177 1444375
0.39029241 -0.39029241 1.1810001 1706769
0.4632943 -0.38368285 1.161 788230
0.46550572 -0.38368285 1.161 788230
0.46771714 -0.38368285 1.161 788231
0.52279431 -0.37872574 1.146 721922
-0.58078003 -0.40315717 1.2270001 5324874
-0.36180001 -0.39625716 1.2060001 16315633
-0.35950288 -0.39625716 1.2060001 16381425
-0.36105624 -0.40052858 1.2190001 16379122
-0.35873431 -0.40052858 1.2190001 16313331
-0.32151428 -0.39757144 1.21 16380919
-0.27541906 -0.39757144 1.21 16645372
-0.27017999 -0.3933 1.197 16644347
-0.17961904 -0.3022857 0.92000002 16711422
-0.11545715 -0.29505718 0.89800006 15380892
-0.085328571 -0.29735714 0.90500003 13341036
-0.083604768 -0.29735714 0.90500003 13075304
-0.081880957 -0.29735714 0.90500003 13272421
-0.080157146 -0.29735714 0.90500003 13469813
-0.078433335 -0.29735714 0.90500003 13471110
-0.047404762 -0.29735714 0.90500003 12684664
-0.042233333 -0.29735714 0.90500003 12354926
-0.040330477 -0.29604286 0.90100002 12157547
-0.038614288 -0.29604286 0.90100002 12025959
-0.037061904 -0.29735714 0.90500003 11961188
-0.035338093 -0.29735714 0.90500003 11958880
-0.03335429 -0.29505718 0.89800006 11828829
-0.01778 -0.29210001 0.88900006 12030384
-0.016086668 -0.29210001 0.88900006 12161201
-0.014393334 -0.29210001 0.88900006 12226488
-0.011006667 -0.29210001 0.88900006 12229313
-0.0093133338 -0.29210001 0.88900006 12429508
-0.00084190484 -0.29045716 0.88400006 13090249
0.00084190484 -0.29045716 0.88400006 13155782
0.36913812 -0.38015714 1.1570001 5982017
0.37134191 -0.38015714 1.1570001 5323318
0.48814383 -0.38015714 1.1570001 592388
-0.57888669 -0.39951333 1.223 5455946
-0.57655716 -0.39951333 1.223 5455949
-0.36059999 -0.39265335 1.202 16248307
-0.32045144 -0.39396003 1.2060001 16249591
-0.31815431 -0.39396003 1.2060001 16250359
-0.31690475 -0.39526665 1.21 16316920
-0.31356004 -0.39396003 1.2060001 16447736
-0.31229523 -0.39526665 1.21 16381944
-0.11545715 -0.29334667 0.89800006 15314838
-0.014393334 -0.2904067 0.88900006 10841226
-0.012700001 -0.2904067 0.88900006 10710159
-0.011006667 -0.2904067 0.88900006 10580111
-0.0093133338 -0.2904067 0.88900006 10778000
-0.0076371427 -0.29106 0.89100003 10977428
-0.0059266672 -0.2904067 0.88900006 11176856
-0.0042238096 -0.28975332 0.88700002 11375780
-0.0025200001 -0.28812 0.88200003 11706031
-0.00083999999 -0.28812 0.88200003 12101556
0.00083809526 -0.28746668 0.88000005 12300473
0.0025142857 -0.28746668 0.88000005 12497335
0.37005809 -0.37664667 1.153 6445631
0.37225428 -0.37664667 1.153 6641209
0.38762763 -0.37664667 1.153 1509131
0.38982379 -0.37664667 1.153 2033677
0.38691998 -0.37174669 1.138 1640976
0.38908762 -0.37174669 1.138 1248526
0.39125523 -0.37174669 1.138 1313805
0.39860857 -0.37664667 1.153 1379597
0.40080476 -0.37664667 1.153 1248781
0.48425999 -0.37664667 1.153 657414
0.48645619 -0.37664667 1.153 591878
-0.57143146 -0.39848289 1.2270001 5719887
-0.38646001 -0.38874 1.197 16183538
-0.38418001 -0.38874 1.197 16314608
-0.37835145 -0.38744098 1.1930001 16312816
-0.36698955 -0.38744098 1.1930001 16380405
-0.36471719 -0.38744098 1.1930001 16314614
-0.36244479 -0.38744098 1.1930001 16248823
0.0025342857 -0.28806382 0.88700002 11373992
0.0042238096 -0.28806382 0.88700002 11308197
0.37128574 -0.37347621 1.1500001 6576202
0.37347621 -0.37347621 1.1500001 6313292
0.37566671 -0.37347621 1.1500001 6116667
0.37785718 -0.37347621 1.1500001 5391402
0.38103905 -0.37445047 1.153 4666409
0.45788765 -0.37087813 1.1420001 788484
0.46006289 -0.37087813 1.1420001 788740
0.52564758 -0.36957905 1.138 394246
0.53215045 -0.36957905 1.138 590853
0.53431809 -0.36957905 1.138 525318
0.53460002 -0.36828002 1.1340001 459780
0.53676003 -0.36828002 1.1340001 395011
-0.56770575 -0.39356288 1.2190001 5851471
-0.53519911 -0.39356288 1.2190001 6705747
-0.5306915 -0.39194861 1.2140001 6771794
-0.37581429 -0.38258573 1.1850001 16183539
-0.37355715 -0.38258573 1.1850001 16249588
-0.37130001 -0.38258573 1.1850001 16315380
-0.37028858 -0.38387716 1.189 16315893
0.0042000003 -0.28476 0.88200003 9987191
0.0058800001 -0.28476 0.88200003 9724029
0.47795999 -0.36741143 1.138 853769
0.52998286 -0.36741143 1.138 525571
0.53215045 -0.36741143 1.138 590852
-0.53002477 -0.38578478 1.202 6706519
-0.17019239 -0.28821525 0.89800006 16711422
-0.10075334 -0.28532669 0.88900006 14919577
-0.099060006 -0.28532669 0.88900006 14984848
0.0058666668 -0.28243813 0.88000005 9856074
0.0075600003 -0.28308001 0.88200003 9790284
0.0092400005 -0.28308001 0.88200003 9790271
0.01092 -0.28308001 0.88200003 9789491
0.014280001 -0.28308001 0.88200003 9791806
0.01596 -0.28308001 0.88200003 9787464
0.01764 -0.28308001 0.88200003 9916498
0.019276192 -0.28243813 0.88000005 10111079
0.020952383 -0.28243813 0.88000005 10440317
0.47795999 -0.36524382 1.138 788746
-0.17322667 -0.28586668 0.89600003 16711422
-0.17152001 -0.28586668 0.89600003 16711422
-0.16981333 -0.28586668 0.89600003 16711422
0.01092 -0.2814 0.88200003 10251078
0.012628572 -0.28203809 0.88400006 10250568
0.014280001 -0.2814 0.88200003 10119243
0.020952383 -0.28076193 0.88000005 9986418
0.022577144 -0.2801238 0.87800002 9724536
0.024249524 -0.2801238 0.87800002 9593725
0.025921905 -0.2801238 0.87800002 9463940
0.39573333 -0.35733333 1.12 1379854
0.39893237 -0.35829049 1.123 1511441
0.40107143 -0.35829049 1.123 1641740
0.55936098 -0.35829049 1.123 590854
0.56150001 -0.35829049 1.123 590852
-0.1806 -0.27972001 0.88200003 16711422
-0.17695335 -0.28194001 0.88900006 16711422
0.025715239 -0.27623147 0.87100005 9660757
0.027311428 -0.27559716 0.86900002 9725779
0.028966667 -0.27559716 0.86900002 9858646
0.030480953 -0.27432859 0.86500007 9857882
0.032017142 -0.27337715 0.86200005 9791835
0.033776194 -0.27432859 0.86500007 9793884
0.035423812 -0.27432859 0.86500007 9860972
0.037157144 -0.27496287 0.86700004 9792892
0.038808573 -0.27496287 0.86700004 9725053
0.043762859 -0.27496287 0.86700004 10050963
0.045309529 -0.27432859 0.86500007 10181274
0.046957146 -0.27432859 0.86500007 10184353
0.39146668 -0.35519999 1.12 3934234
0.39359999 -0.35519999 1.12 3607054
0.39573333 -0.35519999 1.12 3279890
0.41364002 -0.35964 1.1340001 1052169
0.55786669 -0.35519999 1.12 459784
-0.57377619 -0.37607908 1.1930001 5390919
-0.57150382 -0.37607908 1.1930001 5456972
-0.1806 -0.27804002 0.88200003 16711422
-0.17284001 -0.28182289 0.89400005 16711422
-0.050717145 -0.27520287 0.87300003 12750714
0.038719051 -0.27268097 0.86500007 9265505
0.040460002 -0.27331144 0.86700004 9068640
0.042014286 -0.27268097 0.86500007 8937060
0.043661907 -0.27268097 0.86500007 8739176
0.046794288 -0.27173525 0.86200005 8541550
0.048436191 -0.27173525 0.86200005 8476788
0.050078098 -0.27173525 0.86200005 8805243
0.40853333 -0.35306665 1.12 853513
-0.18019049 -0.27573335 0.88000005 16711422
-0.17348573 -0.27573335 0.88000005 16711422
-0.17083335 -0.2741667 0.87500006 16711422
-0.17187335 -0.27855334 0.88900006 16711422
0.050078098 -0.27009335 0.86200005 7626320
0.051720005 -0.27009335 0.86200005 6315309
0.053361908 -0.27009335 0.86200005 4004362
0.054876193 -0.26946667 0.86000001 1769775
0.056514286 -0.26946667 0.86000001 5774164
0.4070743 -0.34968004 1.1160001 2556681
0.40663335 -0.34748667 1.1090001 2163729
0.40874577 -0.34748667 1.1090001 1771789
0.46830952 -0.34623334 1.105 788746
0.48416573 -0.34404001 1.098 788484
0.53987139 -0.34623334 1.105 328709
0.54816288 -0.34748667 1.1090001 328706
0.55226004 -0.34874001 1.113 394755
0.56628096 -0.34184667 1.0910001 525060
-0.52131236 -0.35440573 1.138 6443346
-0.51914477 -0.35440573 1.138 6574928
-0.51480949 -0.35440573 1.138 6640210
-0.51264191 -0.35440573 1.138 6573908
-0.49916288 -0.36032286 1.1570001 10185327
-0.47271717 -0.36032286 1.1570001 14796717
-0.47051337 -0.36032286 1.1570001 14796714
-0.17978096 -0.27343431 0.87800002 16711422
0.0073714289 -0.26782858 0.86000001 10910310
0.0090095233 -0.26782858 0.86000001 10713438
0.010672381 -0.26845145 0.86200005 10647895
0.056514286 -0.26782858 0.86000001 5317227
0.058152381 -0.26782858 0.86000001 10461598
0.40727144 -0.34412855 1.105 1901319
0.40937617 -0.34412855 1.105 1312005
0.41148093 -0.34412855 1.105 787726
0.41358572 -0.34412855 1.105 1180951
0.52808577 -0.3419486 1.098 460037
0.56001431 -0.3410143 1.095 525060
0.56628096 -0.33976859 1.0910001 590852
-0.51914477 -0.35223809 1.138 8408394
-0.51697713 -0.35223809 1.138 8408395
-0.51661903 -0.3534762 1.1420001 8802124
-0.51444381 -0.3534762 1.1420001 9130574
-0.49743715 -0.35688096 1.153 12168070
-0.47108284 -0.35688096 1.153 14732503
-0.18166572 -0.26959524 0.87100005 16711422
-0.18000667 -0.26959524 0.87100005 16711422
-0.17834763 -0.26959524 0.87100005 16711422
0.058152381 -0.26619047 0.86000001 8038573
0.41358572 -0.34202382 1.105 2492452
0.44936669 -0.34202382 1.105 1379347
0.44782954 -0.33769047 1.0910001 919820
0.45155716 -0.33892858 1.095 854283
0.45488575 -0.33985713 1.098 789002
0.45697716 -0.33985713 1.098 788490
0.4590686 -0.33985713 1.098 854279
0.46620476 -0.34202382 1.105 657934
0.50961429 -0.33459526 1.0810001 525828
0.51167333 -0.33459526 1.0810001 525317
0.55228955 -0.33676192 1.0880001 525058
0.55436194 -0.33676192 1.0880001 525315
0.56001431 -0.33892858 1.095 525317
-0.52314484 -0.35130098 1.1420001 10315359
-0.51444381 -0.35130098 1.1420001 11764857
-0.51585716 -0.35376194 1.1500001 12292730
-0.51500666 -0.35468477 1.153 12885639
-0.51281047 -0.35468477 1.153 13150869
-0.50797808 -0.35591525 1.1570001 13874838
-0.50577432 -0.35591525 1.1570001 13874833
-0.50182956 -0.35468477 1.153 13941145
-0.49963331 -0.35468477 1.153 14007456
-0.49743715 -0.35468477 1.153 14139050
-0.47108284 -0.35468477 1.153 14668504
-0.18206191 -0.26609048 0.86500007 16711422
-0.18083145 -0.26670572 0.86700004 16711422
0.058287621 -0.26516765 0.86200005 5663367
0.059929527 -0.26516765 0.86200005 9747647
0.41096571 -0.33776572 1.098 3805209
0.41305715 -0.33776572 1.098 1181712
0.41136765 -0.33468953 1.0880001 983304
0.41458002 -0.33561242 1.0910001 852745
0.41436669 -0.33376667 1.085 984331
0.41374668 -0.33161336 1.0780001 1182987
0.41580003 -0.33161336 1.0780001 1182476
0.43975049 -0.3389962 1.102 1117194
0.4418495 -0.3389962 1.102 1051658
0.44233716 -0.33776572 1.098 986125
0.44604763 -0.3389962 1.102 1444881
0.44936669 -0.33991906 1.105 1903630
0.45990002 -0.33684286 1.095 789252
0.46198574 -0.33684286 1.095 657931
0.4867 -0.33376667 1.085 722692
0.48876667 -0.33376667 1.085 722690
0.48902383 -0.33253622 1.0810001 722692
0.50549626 -0.33253622 1.0810001 656644
0.50755525 -0.33253622 1.0810001 656643
0.50961429 -0.33253622 1.0810001 656900
-0.52532005 -0.34912574 1.1420001 11114873
-0.52497715 -0.35034856 1.146 11703922
-0.51147622 -0.35157144 1.1500001 13285820
-0.51061428 -0.35248858 1.153 13415870
-0.50709528 -0.35157144 1.1500001 13613249
-0.50490481 -0.35157144 1.1500001 13745603
-0.18100952 -0.26291427 0.86000001 16711422
0.060138099 -0.26444286 0.86500007 7168935
0.095187619 -0.34331715 1.123 13547451
0.31057715 -0.33567429 1.098 8350318
0.33267143 -0.33475715 1.095 7890280
0.33567429 -0.33567429 1.098 7824744
0.33776572 -0.33567429 1.098 7759208
0.41580003 -0.32956001 1.0780001 1116939
0.48902383 -0.33047718 1.0810001 657411
0.49108288 -0.33047718 1.0810001 657156
0.49314198 -0.33047718 1.0810001 657158
0.49382666 -0.32956001 1.0780001 591880
-0.52749527 -0.3469505 1.1420001 13151893
-0.52348 -0.34573525 1.138 13086870
-0.18222287 -0.26066861 0.85800004 16711422
-0.18100952 -0.26127619 0.86000001 16711422
-0.013761905 -0.25823808 0.85000002 10512717
-0.012142857 -0.25823808 0.85000002 10643789
0.060138099 -0.26279527 0.86500007 4595336
0.093661904 -0.33570951 1.105 13613502
0.095766664 -0.33570951 1.105 13679038
0.09787143 -0.33570951 1.105 13613501
0.41580003 -0.32750669 1.0780001 1051657
-0.53431809 -0.34356761 1.138 12367278
-0.53027999 -0.34236002 1.1340001 12562867
-0.52811998 -0.34236002 1.1340001 12758452
-0.52596003 -0.34236002 1.1340001 12889781
-0.52564758 -0.34356761 1.138 13086900
-0.35223809 -0.34356761 1.138 16711422
-0.34790286 -0.34356761 1.138 16711422
-0.18342859 -0.25843048 0.85600007 16711422
-0.18179812 -0.25843048 0.85600007 16711422
-0.036342859 -0.25601524 0.84800005 12356718
-0.034604765 -0.25510955 0.84500003 12356725
-0.033112381 -0.25601524 0.84800005 12291444
-0.031497143 -0.25601524 0.84800005 12290932
-0.012071429 -0.25510955 0.84500003 11235939
-0.010461905 -0.25510955 0.84500003 11235684
-0.0088523813 -0.25510955 0.84500003 11301478
0.060277145 -0.26175144 0.86700004 8543081
0.061928574 -0.26175144 0.86700004 8339542
0.41310003 -0.32334003 1.0710001 3608328
0.41514003 -0.32334003 1.0710001 3477004
0.47153714 -0.32424572 1.074 854277
-0.55165905 -0.3414 1.138 12624010
-0.54756004 -0.34020001 1.1340001 12363671
-0.54732382 -0.3414 1.138 12166806
-0.54515618 -0.3414 1.138 12297620
-0.54108 -0.34020001 1.1340001 12494493
-0.53892004 -0.34020001 1.1340001 12495013
-0.53676003 -0.34020001 1.1340001 12561066
-0.53460002 -0.34020001 1.1340001 12561839
-0.53244001 -0.34020001 1.1340001 12627122
-0.18300001 -0.25620002 0.85400003 16711422
-0.096454285 -0.2511 0.83700001 14262928
-0.094860002 -0.2511 0.83700001 14197391
0.062857151 -0.264 0.88000005 13991547
0.064533338 -0.264 0.88000005 8734563
0.20053621 -0.32730004 1.0910001 11112599
0.41397718 -0.3204 1.0680001 5843741
-0.55382669 -0.33923239 1.138 8947611
-0.077322856 -0.24950573 0.83700001 13539715
0.064533338 -0.2623238 0.88000005 12161411
0.066209525 -0.2623238 0.88000005 9529154
0.41514003 -0.31926003 1.0710001 6178863
0.41718003 -0.31926003 1.0710001 4927003
0.41922003 -0.31926003 1.0710001 3740944
0.42126003 -0.31926003 1.0710001 3017990
0.42211431 -0.31836572 1.0680001 2295049
0.42414859 -0.31836572 1.0680001 1705741
-0.40107143 -0.33262193 1.123 16711422
-0.39893237 -0.33262193 1.123 16711422
-0.22801144 -0.25235429 0.85200006 1445278
-0.22638859 -0.25235429 0.85200006 3218587
-0.072020002 -0.2461343 0.83100003 13604736
-0.070437141 -0.2461343 0.83100003 13736070
-0.064898096 -0.24317239 0.82100004 13277060
0.064533338 -0.26064762 0.88000005 15520943
0.42414859 -0.31633145 1.0680001 1770005
0.4261829 -0.31633145 1.0680001 918288
0.42821717 -0.31633145 1.0680001 1246475
0.42981714 -0.3115924 1.052 1379596
0.43182096 -0.3115924 1.052 1248269
0.5199886 -0.3115924 1.052 656390
-0.22854668 -0.25132 0.85400003 3344990
-0.22692001 -0.25132 0.85400003 4995415
-0.22529334 -0.25132 0.85400003 6640979
-0.064898096 -0.24160857 0.82100004 13277315
-0.063334286 -0.24160857 0.82100004 13211777
0.062857151 -0.25897145 0.88000005 15391201
0.42300478 -0.31047145 1.0550001 2753544
0.42781335 -0.30958858 1.052 1248781
0.43104288 -0.31047145 1.0550001 1314062
0.43305239 -0.31047145 1.0550001 1379345
0.45873144 -0.31429717 1.0680001 723973
0.51107621 -0.30664575 1.0420001 525573
0.51306099 -0.30664575 1.0420001 525317
0.5199886 -0.30958858 1.052 525320
0.53842384 -0.30752859 1.0450001 590865
0.53886288 -0.30664575 1.0420001 591115
0.54240477 -0.30752859 1.0450001 525574
-0.31791335 -0.32425049 1.1090001 16711422
-0.22854668 -0.24969333 0.85400003 5244272
-0.22529334 -0.24969333 0.85400003 8280407
-0.22366667 -0.24969333 0.85400003 8216664
-0.22152001 -0.2491086 0.85200006 8216400
-0.22041334 -0.24969333 0.85400003 8150856
-0.2177619 -0.24852382 0.85000002 8084296
-0.21614286 -0.24852382 0.85000002 7821384
-0.17861238 -0.24589239 0.84100002 16711422
0.062857151 -0.25729525 0.88000005 15193823
0.42180192 -0.30758476 1.052 4332804
0.42501429 -0.3084619 1.0550001 1969930
0.42580953 -0.30758476 1.052 1442064
0.42781335 -0.30758476 1.052 918285
0.43305239 -0.3084619 1.0550001 1574671
0.43506193 -0.3084619 1.0550001 1378835
0.51107621 -0.30466095 1.0420001 394756
-0.23017333 -0.24806666 0.85400003 10986155
-0.22854668 -0.24806666 0.85400003 5243265
-0.21401906 -0.24632382 0.84800005 7757404
-0.21165238 -0.24545239 0.84500003 7429466
-0.21004286 -0.24545239 0.84500003 7101527
-0.20843334 -0.24545239 0.84500003 6706517
-0.17978573 -0.24370953 0.83900005 14155518
-0.17776285 -0.24312857 0.83700001 14679806
-0.03198 -0.2379 0.81900007 11632497
-0.010090477 -0.2367381 0.81500006 10713440
-0.0085380953 -0.2367381 0.81500006 10646869
0.063000001 -0.25620002 0.88200003 15127517
0.084106669 -0.30906665 1.064 14864343
0.45113814 -0.30645239 1.0550001 1116937
0.49321336 -0.3026762 1.0420001 788228
0.4951981 -0.3026762 1.0420001 788233
0.5076257 -0.30180478 1.039 592388
0.50960475 -0.30180478 1.039 461316
-0.23017333 -0.24644002 0.85400003 10996660
-0.22908193 -0.24701715 0.85600007 5243254
-0.18095143 -0.24153429 0.83700001 9611970
-0.17935714 -0.24153429 0.83700001 11649227
0.060833335 -0.25250003 0.87500006 14017253
0.084106669 -0.30704001 1.064 14338259
0.45113814 -0.30444285 1.0550001 1248267
0.49432001 -0.29896 1.036 788235
0.49629337 -0.29896 1.036 722702
0.49826667 -0.29896 1.036 723730
0.50024003 -0.29896 1.036 723468
0.50564671 -0.29982573 1.039 657669
0.5076257 -0.29982573 1.039 592131
-0.31266856 -0.31476 1.098 16711422
-0.31057715 -0.31476 1.098 16711422
-0.30848572 -0.31476 1.098 16711422
-0.22908193 -0.24538668 0.85600007 7340396
-0.20424286 -0.24108668 0.84100002 7887964
-0.20264097 -0.24108668 0.84100002 7888222
-0.20151716 -0.24166001 0.84300005 7822433
-0.19896287 -0.24051334 0.83900005 7822430
-0.19736478 -0.24051334 0.83900005 7560027
-0.18210953 -0.23936667 0.83500004 7545449
-0.18095143 -0.23993999 0.83700001 8394118
-0.12636381 -0.23334667 0.81400001 16443863
0.011571429 -0.23220001 0.81000006 9591874
0.013081905 -0.23162667 0.80800003 9592131
0.014693334 -0.23277335 0.81200004 9657915
0.016200002 -0.23220001 0.81000006 9068084
0.017742857 -0.23220001 0.81000006 8544575
0.019285716 -0.23220001 0.81000006 7295562
0.060833335 -0.25083336 0.87500006 13425636
0.084422864 -0.30616 1.0680001 14401743
0.086457148 -0.30616 1.0680001 14403789
0.21200477 -0.30243334 1.0550001 11114147
0.21401429 -0.30243334 1.0550001 11179684
0.21602382 -0.30243334 1.0550001 11311009
0.50366765 -0.29784667 1.039 722697
0.50564671 -0.29784667 1.039 722694
-0.30651906 -0.31067526 1.0910001 16711422
-0.30444098 -0.31067526 1.0910001 16711422
-0.30236286 -0.31067526 1.0910001 16711422
-0.22961715 -0.24432573 0.85800004 9503091
-0.19736478 -0.23891525 0.83900005 7756377
-0.19370572 -0.23834571 0.83700001 7822168
-0.19165239 -0.23777619 0.83500004 7953232
-0.18960668 -0.23720668 0.83300006 7887689
-0.18802002 -0.23720668 0.83300006 7887174
-0.18643335 -0.23720668 0.83300006 7690307
-0.18529049 -0.23777619 0.83500004 7559501
-0.18370001 -0.23777619 0.83500004 7560024
-0.18167335 -0.23720668 0.83300006 7624292
-0.11802858 -0.23065716 0.81000006 15979212
-0.11648572 -0.23065716 0.81000006 16242888
-0.11551048 -0.23179619 0.81400001 16571078
-0.11396001 -0.23179619 0.81400001 16641221
0.019285716 -0.23065716 0.81000006 4985142
0.061041906 -0.25002095 0.87800002 12768742
0.086133331 -0.30298668 1.064 14403790
0.088160001 -0.30298668 1.064 14338255
-0.23015238 -0.24325714 0.86000001 12059003
0.061041906 -0.24834856 0.87800002 13098472
0.087414287 -0.29841429 1.0550001 14403534
0.089423813 -0.29841429 1.0550001 14337742
0.091173336 -0.2975657 1.052 14271948
0.093177147 -0.2975657 1.052 14337482
0.095180951 -0.2975657 1.052 14401996
0.42475241 -0.29134288 1.0300001 7100496
0.42671433 -0.29134288 1.0300001 6968894
-0.23015238 -0.24161904 0.86000001 14705022
-0.11240952 -0.22869524 0.81400001 15449281
0.061041906 -0.24667619 0.87800002 13493991
0.094819061 -0.29443812 1.0480001 14205900
0.096815243 -0.29443812 1.0480001 14205644
0.1494181 -0.29190952 1.039 13021108
0.15139715 -0.29190952 1.039 12955059
0.15381905 -0.29275239 1.0420001 12955058
0.15580381 -0.29275239 1.0420001 12889778
0.42505714 -0.28825715 1.026 7167055
0.42701143 -0.28825715 1.026 7167558
0.43063813 -0.289381 1.0300001 7230523
0.43260002 -0.289381 1.0300001 6900527
0.43652382 -0.289381 1.0300001 3871251
0.48431715 -0.28404287 1.011 591883
-0.23068763 -0.24053906 0.86200005 15712640
-0.11158095 -0.22547048 0.80800003 13482165
-0.11004191 -0.22547048 0.80800003 13810100
-0.092420958 -0.22379619 0.80200005 15648189
-0.090893336 -0.22379619 0.80200005 15316668
-0.089365721 -0.22379619 0.80200005 15050933
0.02237143 -0.22602859 0.81000006 4797741
0.061041906 -0.2450038 0.87800002 13493735
0.096538097 -0.29160479 1.0450001 14140617
0.14306666 -0.28909335 1.036 13415866
0.14504001 -0.28909335 1.036 13481145
0.14701334 -0.28909335 1.036 13284280
0.43092 -0.28630286 1.026 7035982
0.43287429 -0.28630286 1.026 6838072
0.43482858 -0.28630286 1.026 5522210
0.43678287 -0.28630286 1.026 4206611
0.44044766 -0.28741908 1.0300001 3938820
0.44240955 -0.28741908 1.0300001 3736844
0.46782002 -0.28379145 1.0170001 1116938
-0.23068763 -0.23889714 0.86200005 16703360
-0.10976953 -0.22337715 0.80600005 12433572
-0.10823429 -0.22337715 0.80600005 13352366
-0.10669905 -0.22337715 0.80600005 14205881
-0.10516381 -0.22337715 0.80600005 15121842
-0.095238097 -0.22171429 0.80000001 15055543
-0.093948573 -0.22226858 0.80200005 14855095
0.061041906 -0.24333143 0.87800002 13493477
0.096260957 -0.28878286 1.0420001 14140877
0.098245718 -0.28878286 1.0420001 14140619
0.10023048 -0.28878286 1.0420001 14139849
0.43553716 -0.28102285 1.0140001 6432027
0.43746862 -0.28102285 1.0140001 3606283
0.47712001 -0.27936 1.008 788488
-0.43432003 -0.29395428 1.0680001 16711422
-0.23068763 -0.23725525 0.86200005 16711295
-0.22904573 -0.23725525 0.86200005 11492097
-0.10516381 -0.22184192 0.80600005 9213874
-0.10311429 -0.22074096 0.80200005 9740964
-0.10133334 -0.22019047 0.80000001 10268075
-0.099809527 -0.22019047 0.80000001 11185843
-0.09828572 -0.22019047 0.80000001 12103602
-0.096761905 -0.22019047 0.80000001 12629425
-0.095238097 -0.22019047 0.80000001 13220784
-0.023205714 -0.21633714 0.78600001 10380876
-0.021708572 -0.21633714 0.78600001 10578514
-0.020391429 -0.21826382 0.79300004 10382425
-0.018714285 -0.21633714 0.78600001 10252128
-0.017217144 -0.21633714 0.78600001 10317415
0.059504766 -0.24220954 0.88000005 11713470
0.099653333 -0.28514665 1.036 14075083
0.10133238 -0.28432095 1.033 14074825
0.1033 -0.28432095 1.033 14140359
-0.43269333 -0.29082668 1.064 16711422
-0.43066669 -0.29082668 1.064 16711422
-0.42863998 -0.29082668 1.064 16711422
-0.42661333 -0.29082668 1.064 16711422
-0.22904573 -0.23561335 0.86200005 12158317
-0.017217144 -0.21483999 0.78600001 10448994
0.059504766 -0.24053334 0.88000005 11712697
0.10300001 -0.28153333 1.0300001 14074057
0.10496191 -0.28153333 1.0300001 14139594
0.11809334 -0.28481334 1.0420001 14262696
0.43487999 -0.27552 1.008 7101741
-0.23037429 -0.23532858 0.86700004 13294297
0.024061905 -0.22121429 0.81500006 5060153
0.059504766 -0.23885716 0.88000005 11646388
0.10424857 -0.27767143 1.023 14271178
0.10650857 -0.27848572 1.026 14140105
0.10814571 -0.27767143 1.023 14074570
0.11009429 -0.27767143 1.023 14074827
0.11204285 -0.27767143 1.023 14075086
0.11432571 -0.27848572 1.026 14206162
0.11628 -0.27848572 1.026 14271925
0.43401715 -0.27305716 1.006 7167833
0.43593335 -0.27305716 1.006 7168335
0.43784952 -0.27305716 1.006 6773062
-0.23090571 -0.23421618 0.86900002 14352105
0.024061905 -0.21966192 0.81500006 5060668
0.059640002 -0.23772 0.88200003 11646392
0.43784952 -0.27114093 1.006 7102290
0.5027343 -0.26494193 0.98300004 656911
-0.23090571 -0.23256096 0.86900002 14876410
0.024120953 -0.21864477 0.81700003 5061183
0.059640002 -0.23604001 0.88200003 11711933
0.43654379 -0.26842192 1.003 7233375
0.49898955 -0.26306954 0.98300004 1050891
0.50086194 -0.26306954 0.98300004 723466
0.5027343 -0.26306954 0.98300004 657930
-0.23037429 -0.23037429 0.86700004 15400700
0.024120953 -0.21708858 0.81700003 5060665
0.05796 -0.23435999 0.88200003 7432091
-0.23090571 -0.22925048 0.86900002 16056062
0.024061905 -0.21500477 0.81500006 4666420
0.058091432 -0.23320763 0.88400006 7696283
0.13008477 -0.2630181 0.99700004 11175525
0.13198382 -0.2630181 0.99700004 10186871
-0.23090571 -0.22759524 0.86900002 16711422
0.022620002 -0.21450002 0.81900007 4667947
0.024180001 -0.21450002 0.81900007 4272686
0.056407623 -0.23152383 0.88400006 3608156
0.44656289 -0.2574524 0.98300004 7495475
0.44843525 -0.2574524 0.98300004 7493172
0.45030764 -0.2574524 0.98300004 6573620
0.45310003 -0.2579762 0.98500007 5715488
0.45497623 -0.2579762 0.98500007 4267531
-0.23143716 -0.22646001 0.87100005 16711422
0.022620002 -0.21294002 0.81900007 4142113
0.056599047 -0.23062 0.88700002 3479901
0.42840001 -0.25479999 0.98000002 7628134
0.44333333 -0.25479999 0.98000002 7496291
0.44520003 -0.25479999 0.98000002 7561830
-0.28156856 -0.26403144 1.023 16711422
-0.27962002 -0.26403144 1.023 16711422
-0.23143716 -0.22480096 0.87100005 16711422
0.02267524 -0.2118962 0.82100004 3615251
0.056726668 -0.22944668 0.88900006 3346012
0.42840001 -0.25293335 0.98000002 7759461
0.42894956 -0.25215906 0.97700006 7759462
0.43345621 -0.25370762 0.98300004 7759205
0.43267146 -0.25215906 0.97700006 7758693
0.4345324 -0.25215906 0.97700006 7759205
0.43639335 -0.25215906 0.97700006 7628133
0.4369086 -0.25138476 0.97400004 7562343
0.43876383 -0.25138476 0.97400004 7496808
0.44061905 -0.25138476 0.97400004 7496550
-0.23196857 -0.22365429 0.87300003 16711422
0.058551431 -0.22826573 0.89100003 7830429
0.44712004 -0.24901716 0.97200006 7562588
0.44758573 -0.24824858 0.96900004 7431005
0.44804001 -0.24748001 0.96600002 7365214
0.45127717 -0.24824858 0.96900004 7101792
0.45312288 -0.24824858 0.96900004 6904112
0.45121238 -0.24619904 0.96100003 5456385
0.45304286 -0.24619904 0.96100003 4074498
-0.23196857 -0.22199143 0.87300003 16711422
0.058551431 -0.22656856 0.89100003 7766176
0.45304286 -0.24436857 0.96100003 7032614
0.45487332 -0.24436857 0.96100003 6307871
0.45670381 -0.24436857 0.96100003 5579031
0.4862991 -0.24360572 0.95800006 1182215
-0.23196857 -0.22032857 0.87300003 16711422
-0.23030573 -0.22032857 0.87300003 16711376
0.040040001 -0.21654287 0.85800004 5454903
0.060248572 -0.22487143 0.89100003 13423042
0.45670381 -0.24253809 0.96100003 6247459
0.45853427 -0.24253809 0.96100003 4992012
0.47831529 -0.24051906 0.95300007 1116428
0.48113814 -0.24102382 0.95500004 1116685
0.48295715 -0.24102382 0.95500004 1181961
0.49387142 -0.24102382 0.95500004 920331
0.49569049 -0.24102382 0.95500004 854795
0.49750954 -0.24102382 0.95500004 789259
-0.48616856 -0.25623715 1.023 14871547
-0.23083335 -0.21916668 0.87500006 16711397
0.060248572 -0.22317429 0.89100003 13752003
0.30177429 -0.24271144 0.96900004 9863816
0.30362001 -0.24271144 0.96900004 9733512
0.45710289 -0.2399562 0.95800006 7099443
0.45892763 -0.2399562 0.95800006 7291691
0.46316573 -0.23745145 0.94800007 1443593
0.4659524 -0.23795238 0.95000005 985356
0.47022381 -0.23920476 0.95500004 1051151
0.47568098 -0.23920476 0.95500004 1116682
0.47750002 -0.23920476 0.95500004 1116938
0.47831529 -0.23870383 0.95300007 1116939
0.4892067 -0.23870383 0.95300007 1116683
0.49102196 -0.23870383 0.95300007 1050891
-0.23382859 -0.21874286 0.88000005 16711422
-0.23162477 -0.21824571 0.87800002 16711419
0.060248572 -0.22147715 0.89100003 14212036
0.45653242 -0.23688859 0.95300007 7233103
0.45834765 -0.23688859 0.95300007 6247492
0.45871431 -0.23614286 0.95000005 5261873
0.46052381 -0.23614286 0.95000005 4664095
0.46233335 -0.23614286 0.95000005 4131857
0.46316573 -0.23564574 0.94800007 3344899
0.50089717 -0.23813143 0.95800006 854282
-0.23382859 -0.21706668 0.88000005 16711422
0.058420002 -0.21928668 0.88900006 9149099
0.060248572 -0.21978001 0.89100003 14671814
0.068133332 -0.24173334 0.98000002 14870242
-0.23382859 -0.21539049 0.88000005 16711422
0.058551431 -0.21808288 0.89100003 8886189
-0.26306954 -0.23872858 0.98300004 16711422
-0.23382859 -0.21371429 0.88000005 16711422
-0.23215239 -0.21371429 0.88000005 16711422
0.056726668 -0.2159 0.88900006 2228838
0.058551431 -0.21638571 0.89100003 8623540
-0.51744002 -0.24288 1.008 9535098
-0.26868665 -0.23685619 0.98300004 16711422
-0.26494193 -0.23685619 0.98300004 16711422
-0.26306954 -0.23685619 0.98300004 16711422
-0.23215239 -0.2120381 0.88000005 16711422
0.042305715 -0.20986953 0.87100005 5653826
0.057300955 -0.21637525 0.89800006 2097512
-0.51641333 -0.24048191 1.006 9665916
-0.50229812 -0.23833048 0.99700004 10652819
-0.23215239 -0.21036193 0.88000005 16711422
-0.2304762 -0.21036193 0.88000005 16711422
0.021162858 -0.19673619 0.82300001 5324094
0.042305715 -0.20821048 0.87100005 5850949
0.057300955 -0.21466477 0.89800006 2031979
0.059011433 -0.21466477 0.89800006 9086660
-0.51487333 -0.23785429 1.003 9798015
-0.51296288 -0.23785429 1.003 10061449
-0.50380951 -0.23714286 1 10653848
-0.50039905 -0.23643143 0.99700004 10851225
-0.49850005 -0.23643143 0.99700004 11049112
-0.23100001 -0.20916001 0.88200003 16711422
0.021265715 -0.19611715 0.82700002 5192767
0.042014286 -0.20512858 0.86500007 5917000
0.059011433 -0.2129543 0.89800006 9218252
-0.51296288 -0.23594382 1.003 10258318
-0.23152383 -0.2079505 0.88400006 16711422
-0.22932 -0.20748 0.88200003 16711362
-0.17807144 -0.19548286 0.83100003 2236747
-0.17648858 -0.19548286 0.83100003 2955839
-0.17616858 -0.19689429 0.83700001 3679038
0.042500004 -0.20583335 0.87500006 6048585
0.059208572 -0.21194953 0.90100002 9415627
-0.22984001 -0.20626669 0.88400006 16711377
-0.17965429 -0.1939 0.83100003 6111800
-0.17807144 -0.1939 0.83100003 4397609
0.042500004 -0.20416668 0.87500006 5918027
0.059340004 -0.21070002 0.90300006 9548490
-0.57014 -0.22749428 0.98300004 5456966
-0.49550003 -0.22934572 0.99100006 10982044
-0.49361241 -0.22934572 0.99100006 11178397
-0.43290761 -0.22240287 0.96100003 15128289
-0.43107715 -0.22240287 0.96100003 15923709
-0.43282002 -0.2242543 0.96900004 16710140
-0.23244001 -0.20689715 0.89400005 16711396
-0.17965429 -0.19231716 0.83100003 7167046
0.042645715 -0.20319429 0.87800002 5852235
0.059340004 -0.20898001 0.90300006 9746895
0.46024668 -0.21222001 0.91700006 7629160
0.46199334 -0.21222001 0.91700006 7694946
0.46374002 -0.21222001 0.91700006 7759975
0.46548668 -0.21222001 0.91700006 7431788
0.46723336 -0.21222001 0.91700006 7169130
-0.56093335 -0.22493334 0.98000002 5984079
-0.53802574 -0.22240858 0.96900004 7626082
-0.53084004 -0.22172 0.96600002 8546409
-0.48514476 -0.22355619 0.97400004 11178912
-0.48328954 -0.22355619 0.97400004 11441569
-0.48143429 -0.22355619 0.97400004 11704739
-0.48105621 -0.22424477 0.97700006 12032932
-0.47919527 -0.22424477 0.97700006 11641254
-0.43564287 -0.22103143 0.96300006 14142139
-0.23244001 -0.20519429 0.89400005 16711414
-0.22815619 -0.20289907 0.88400006 12973551
-0.18080097 -0.19027525 0.82900006 7625043
-0.17965429 -0.1907343 0.83100003 7100500
0.040973332 -0.2015219 0.87800002 5786189
0.057747621 -0.20771906 0.90500003 2425202
0.059471432 -0.20771906 0.90500003 9551573
-0.55533338 -0.22306667 0.98000002 6576211
-0.47772381 -0.22170097 0.97400004 10984620
-0.47586858 -0.22170097 0.97400004 9870251
-0.47401336 -0.22170097 0.97400004 9673641
-0.4711886 -0.22124572 0.97200006 9479347
-0.46402574 -0.21874191 0.96100003 11447741
-0.46219525 -0.21874191 0.96100003 13414330
-0.22815619 -0.20121525 0.88400006 14089974
-0.22903429 -0.20349143 0.89400005 11483782
-0.18080097 -0.18869621 0.82900006 7559249
-0.16699143 -0.18915144 0.83100003 4401461
0.057939049 -0.20667811 0.90800005 2031986
0.065143809 -0.21327905 0.93700004 16447997
-0.53248858 -0.21871716 0.96900004 9263459
-0.4862991 -0.2162343 0.95800006 10652566
-0.4347381 -0.21691144 0.96100003 13156038
-0.22903429 -0.20178857 0.89400005 14054537
-0.18282001 -0.18756858 0.83100003 7690063
-0.18123715 -0.18756858 0.83100003 7558991
-0.16658953 -0.18711714 0.82900006 4793650
-0.1650105 -0.18711714 0.82900006 4269878
0.058066666 -0.2054 0.91000003 2687346
-0.52809238 -0.21508096 0.96100003 8612974
-0.52626193 -0.21508096 0.96100003 8679000
-0.4896524 -0.21508096 0.96100003 10587289
-0.4862991 -0.21440955 0.95800006 10718104
-0.43338096 -0.21440955 0.95800006 12292012
-0.23073715 -0.20008573 0.89400005 16711422
-0.22903429 -0.20008573 0.89400005 16693394
-0.18282001 -0.18598571 0.83100003 7755598
-0.18123715 -0.18598571 0.83100003 7624527
-0.1638162 -0.18419524 0.82300001 4529202
-0.16224858 -0.18419524 0.82300001 3874360
-0.53064293 -0.21502572 0.96900004 8613498
-0.24828573 -0.21036573 0.94800007 16711422
-0.23073715 -0.19838287 0.89400005 16711422
-0.22954667 -0.19882667 0.89600003 16711068
-0.17992859 -0.18307143 0.82500005 7624527
-0.16047429 -0.18063048 0.81400001 4530230
-0.15911905 -0.1808524 0.81500006 4073010
-0.15756667 -0.1808524 0.81500006 4007470
-0.5134486 -0.21142001 0.96100003 9863049
-0.51002097 -0.21076001 0.95800006 9797773
-0.22903429 -0.19668001 0.89400005 16711064
-0.18123715 -0.18282001 0.83100003 7624281
-0.15737334 -0.17907999 0.81400001 4464944
-0.15582286 -0.17907999 0.81400001 4007470
0.019833334 -0.18326002 0.83300006 3484713
0.046566669 -0.19558001 0.88900006 3878456
0.048640002 -0.19712001 0.89600003 3943993
-0.5063715 -0.20893526 0.95800006 9666952
-0.47286955 -0.20784478 0.95300007 11639716
-0.46858287 -0.2067543 0.94800007 11770537
-0.45791429 -0.20282859 0.93000007 11836080
-0.4561429 -0.20282859 0.93000007 12427960
-0.45437145 -0.20282859 0.93000007 13022649
-0.23005906 -0.19584954 0.89800006 16711317
-0.18210953 -0.18210953 0.83500004 7624290
-0.18051906 -0.18210953 0.83500004 7756399
-0.15582286 -0.17752953 0.81400001 4532014
-0.081320003 -0.17404 0.79800004 3415324
0.019833334 -0.18167335 0.83300006 3285289
0.046671428 -0.19432285 0.89100003 3285041
0.10695143 -0.19912095 0.91300005 14602971
0.10833333 -0.19846666 0.91000003 14471385
0.11067143 -0.19955714 0.91500002 14405591
-0.51661903 -0.20538096 0.95000005 8217987
-0.45437145 -0.20105715 0.93000007 12561587
-0.45260003 -0.20105715 0.93000007 11241143
-0.45082858 -0.20105715 0.93000007 9930421
-0.44905716 -0.20105715 0.93000007 11306931
-0.23005906 -0.19413905 0.89800006 16711334
-0.18051906 -0.18051906 0.83500004 7756385
-0.17892858 -0.18051906 0.83500004 7952725
-0.15544 -0.17554668 0.81200004 5058359
-0.081523806 -0.17295238 0.80000001 3612959
0.019833334 -0.18008669 0.83300006 3022113
0.24338001 -0.19522001 0.90300006 10391189
0.24510001 -0.19522001 0.90300006 10325653
0.24736668 -0.1956524 0.90500003 10325396
0.24909049 -0.1956524 0.90500003 10259604
-0.23082761 -0.19307142 0.90100002 16711351
-0.17892858 -0.17892858 0.83500004 7625553
-0.15582286 -0.17442858 0.81400001 5191487
-0.15427239 -0.17442858 0.81400001 4993070
-0.13977715 -0.17185715 0.80200005 3612194
-0.13790476 -0.17142858 0.80000001 3611945
-0.13638094 -0.17142858 0.80000001 3611184
-0.13485715 -0.17142858 0.80000001 3610412
-0.13333333 -0.17142858 0.80000001 3676969
-0.13147999 -0.171 0.79800004 3743019
-0.12996 -0.171 0.79800004 3875118
-0.081523806 -0.17142858 0.80000001 3547938
-0.53200573 -0.20006287 0.94200003 8021869
-0.23082761 -0.19135524 0.90100002 16711364
-0.17850001 -0.17691335 0.83300006 7296082
-0.17691335 -0.17691335 0.83300006 7230289
-0.15427239 -0.1728781 0.81400001 5322038
-0.15234667 -0.17245333 0.81200004 5255989
-0.15042858 -0.17202859 0.81000006 5386803
-0.1485181 -0.17160381 0.80800003 5517104
-0.14697905 -0.17160381 0.80800003 5057580
-0.14508002 -0.17117906 0.80600005 4598057
-0.14354478 -0.17117906 0.80600005 4269863
-0.14165714 -0.17075428 0.80400002 3941152
-0.13977715 -0.17032953 0.80200005 3808026
-0.13028571 -0.16990477 0.80000001 3480618
-0.12843999 -0.16948001 0.79800004 3546413
-0.12692 -0.16948001 0.79800004 3415601
-0.12540001 -0.16948001 0.79800004 3284520
-0.081801906 -0.16735621 0.78800005 3548715
-0.080300957 -0.16735621 0.78800005 3548199
-0.23134001 -0.19006002 0.90300006 16711377
-0.17606382 -0.17448477 0.82900006 7033173
-0.1740638 -0.1740638 0.82700002 7033175
-0.12571429 -0.16838096 0.80000001 3414558
-0.12419049 -0.16838096 0.80000001 3217682
-0.12220667 -0.16774952 0.79700005 3020061
-0.12068858 -0.16774952 0.79700005 3282216
-0.083302855 -0.16585524 0.78800005 3218732
-0.081801906 -0.16585524 0.78800005 3021612
-0.49527144 -0.19543143 0.93700004 10324616
-0.49348667 -0.19543143 0.93700004 10455692
-0.48634762 -0.19543143 0.93700004 10850448
-0.23134001 -0.18834002 0.90300006 16711399
-0.17448477 -0.17290573 0.82900006 6901843
-0.12038572 -0.1658143 0.79500002 3413541
-0.11887143 -0.1658143 0.79500002 3544610
-0.099053346 -0.16310287 0.78200006 3941935
-0.097813338 -0.16352001 0.78400004 3744811
-0.096320003 -0.16352001 0.78400004 3612712
-0.094826676 -0.16352001 0.78400004 3481125
-0.093333341 -0.16352001 0.78400004 3349539
-0.087360002 -0.16352001 0.78400004 3085341
-0.085866667 -0.16352001 0.78400004 3085593
-0.084803812 -0.16435429 0.78800005 3085086
-0.083302855 -0.16435429 0.78800005 2757156
-0.075413339 -0.16352001 0.78400004 2889252
-0.073920004 -0.16352001 0.78400004 2298390
