# .PCD v0.7 - Point Cloud Data file format
VERSION 0.7
FIELDS x y z rgba
SIZE 4 4 4 4
TYPE F F F U
COUNT 1 1 1 1
WIDTH 1257
HEIGHT 1
VIEWPOINT 0 0 0 1 0 0 0
POINTS 1257
DATA ascii
0.058152381 -0.26619047 0.86000001 8038573
-0.51444381 -0.35130098 1.1420001 11764857
-0.51585716 -0.35376194 1.1500001 12292730
-0.51500666 -0.35468477 1.153 12885639
0.058287621 -0.26516765 0.86200005 5663367
0.059929527 -0.26516765 0.86200005 9747647
0.41096571 -0.33776572 1.098 3805209
nan nan nan 10591350
-0.52532005 -0.34912574 1.1420001 11114873
-0.52497715 -0.35034856 1.146 11703922
0.060138099 -0.26444286 0.86500007 7168935
0.40929523 -0.33261716 1.0880001 4010506
0.085094288 -0.34360856 1.131 9741495
0.41023335 -0.32963336 1.085 6571297
0.062857151 -0.264 0.88000005 13991547
0.087663814 -0.33270001 1.1090001 5270433
0.4119429 -0.3204 1.0680001 6243110
0.41397718 -0.3204 1.0680001 5843741
-0.55382669 -0.33923239 1.138 8947611
0.064533338 -0.2623238 0.88000005 12161411
0.066209525 -0.2623238 0.88000005 9529154
0.088885717 -0.32730857 1.098 7627726
0.41514003 -0.31926003 1.0710001 6178863
0.41718003 -0.31926003 1.0710001 4927003
0.41922003 -0.31926003 1.0710001 3740944
0.092814289 -0.32432857 1.095 6659231
0.41804573 -0.31633145 1.0680001 7030576
0.42211431 -0.31633145 1.0680001 2693918
0.095160007 -0.32312572 1.098 9597350
-0.22529334 -0.24969333 0.85400003 8280407
-0.12225429 -0.24530764 0.83900005 16434858
0.099071428 -0.32015714 1.095 5480089
0.42180192 -0.30758476 1.052 4332804
-0.23017333 -0.24806666 0.85400003 10986155
0.10078763 -0.31690955 1.0910001 9081242
0.42180192 -0.30558097 1.052 5719297
-0.54099429 -0.32204571 1.1160001 10128025
-0.23017333 -0.24644002 0.85400003 10996660
-0.22529334 -0.24644002 0.85400003 7428940
-0.18095143 -0.24153429 0.83700001 9611970
-0.17935714 -0.24153429 0.83700001 11649227
-0.11320286 -0.24326573 0.84300005 16371365
0.021368571 -0.23980287 0.83100003 9592385
0.10436668 -0.31310001 1.085 8297637
0.10643334 -0.31310001 1.085 11711424
0.42580953 -0.30357715 1.052 6967858
-0.53953999 -0.31906 1.113 9012627
-0.17332287 -0.23822001 0.83100003 9961925
-0.17174001 -0.23822001 0.83100003 10093020
-0.17015715 -0.23822001 0.83100003 9908724
-0.16857429 -0.23822001 0.83100003 9724409
-0.16699143 -0.23822001 0.83100003 9872126
-0.1650105 -0.23764668 0.82900006 10085370
-0.16382572 -0.23822001 0.83100003 9689847
-0.16224286 -0.23822001 0.83100003 9359861
-0.1595 -0.23650001 0.82500005 9819891
-0.10710001 -0.23879334 0.83300006 15973800
-0.10500667 -0.23764668 0.82900006 15712676
0.019285716 -0.23220001 0.81000006 7295562
0.021368571 -0.23822001 0.83100003 6046501
nan nan nan 14073527
0.10810001 -0.30988666 1.0810001 10655985
0.11015905 -0.30988666 1.0810001 11584479
0.4281829 -0.30042669 1.0480001 5588516
-0.2241905 -0.2437562 0.85600007 7099737
0.019285716 -0.23065716 0.81000006 4985142
0.11015905 -0.30782765 1.0810001 8425900
0.11086858 -0.30412573 1.0680001 11451600
nan nan nan 6831395
-0.23015238 -0.24325714 0.86000001 12059003
-0.2241905 -0.24212573 0.85600007 7099988
-0.14814 -0.23279142 0.82300001 8936385
-0.14152478 -0.23222572 0.82100004 9804000
-0.13962001 -0.23166002 0.81900007 10465254
0.11086858 -0.30209145 1.0680001 10260436
0.11216287 -0.30011147 1.0610001 10403796
nan nan nan 5786156
-0.53210855 -0.3096095 1.102 9934516
-0.23015238 -0.24161904 0.86000001 14705022
-0.091482863 -0.23066191 0.82100004 15847599
-0.089919046 -0.23066191 0.82100004 15056557
0.014620952 -0.22700953 0.80800003 4728338
0.11450667 -0.29893333 1.064 9810091
0.11587621 -0.29724762 1.0580001 13287107
0.43260002 -0.289381 1.0300001 6900527
0.43652382 -0.289381 1.0300001 3871251
-0.23068763 -0.24053906 0.86200005 15712640
-0.092420958 -0.22379619 0.80200005 15648189
-0.090893336 -0.22379619 0.80200005 15316668
-0.089365721 -0.22379619 0.80200005 15050933
0.013049524 -0.22491241 0.80600005 5516545
0.11587621 -0.29523239 1.0580001 11899321
0.43482858 -0.28630286 1.026 5522210
0.43678287 -0.28630286 1.026 4206611
-0.23068763 -0.23889714 0.86200005 16703360
0.11922667 -0.2915543 1.052 9938879
0.43553716 -0.28102285 1.0140001 6432027
-0.23068763 -0.23725525 0.86200005 16711295
-0.10516381 -0.22184192 0.80600005 9213874
0.4342486 -0.27826571 1.011 6771498
0.43617427 -0.27826571 1.011 5324545
-0.22904573 -0.23561335 0.86200005 12158317
0.006831429 -0.21784668 0.79700005 4725033
nan nan nan 6506535
-0.23037429 -0.23532858 0.86700004 13294297
-0.088808581 -0.21632859 0.79700005 8750004
-0.087290481 -0.21632859 0.79700005 9080232
0.0037761906 -0.21524286 0.79300004 6042942
0.11628 -0.27848572 1.026 14271925
0.11754287 -0.27491432 1.0200001 14206384
0.12850477 -0.27760953 1.0300001 8744852
nan nan nan 6373673
nan nan nan 5710107
-0.51846665 -0.28849337 1.0780001 9733795
nan nan nan 3810312
0.05796 -0.23435999 0.88200003 7432091
nan nan nan 6571311
nan nan nan 5973019
-0.2232524 -0.22819526 0.86500007 6838364
-0.061973337 -0.20682667 0.78400004 6370177
-0.060480002 -0.20682667 0.78400004 6374286
-0.057493336 -0.20682667 0.78400004 7695248
0.058091432 -0.23320763 0.88400006 7696283
-0.22872287 -0.22707145 0.86700004 16704909
-0.055857148 -0.20480955 0.78200006 3801413
-0.054367624 -0.20480955 0.78200006 4804730
-0.0066857147 -0.20428573 0.78000003 7686735
0.058091432 -0.23152383 0.88400006 7895194
0.45030764 -0.2574524 0.98300004 6573620
0.45310003 -0.2579762 0.98500007 5715488
0.45497623 -0.2579762 0.98500007 4267531
-0.22925048 -0.22594 0.86900002 16711317
-0.045139998 -0.20202 0.77700001 5911902
-0.0096199997 -0.20202 0.77700001 8287843
nan nan nan 7894937
-0.22977811 -0.22480096 0.87100005 16711319
-0.036026664 -0.19924952 0.77200001 4078405
-0.012499048 -0.19924952 0.77200001 10843474
-0.011042858 -0.19950764 0.77300006 8021308
-0.0095952386 -0.20002382 0.77500004 5190452
-0.029988572 -0.19675428 0.76800001 5779293
-0.028525714 -0.19675428 0.76800001 5914738
-0.02702762 -0.1964981 0.76700002 6050421
-0.025566667 -0.1964981 0.76700002 6444920
-0.024105715 -0.1964981 0.76700002 6904953
-0.022644762 -0.1964981 0.76700002 7168378
-0.021183809 -0.1964981 0.76700002 7497334
-0.019722857 -0.1964981 0.76700002 7827827
-0.013897142 -0.19675428 0.76800001 7563867
-0.012466667 -0.19726667 0.77000004 6181934
0.058551431 -0.22826573 0.89100003 7830429
0.45312288 -0.24824858 0.96900004 6904112
0.45121238 -0.24619904 0.96100003 5456385
0.45304286 -0.24619904 0.96100003 4074498
-0.013879048 -0.19503714 0.76700002 4143677
0.058551431 -0.22656856 0.89100003 7766176
0.45304286 -0.24436857 0.96100003 7032614
0.45487332 -0.24436857 0.96100003 6307871
0.45670381 -0.24436857 0.96100003 5579031
0.45670381 -0.24253809 0.96100003 6247459
0.45853427 -0.24253809 0.96100003 4992012
0.45892763 -0.2399562 0.95800006 7291691
0.45871431 -0.23614286 0.95000005 5261873
0.46052381 -0.23614286 0.95000005 4664095
0.46233335 -0.23614286 0.95000005 4131857
-0.18832001 -0.21114667 0.85600007 7626319
0.058420002 -0.21928668 0.88900006 9149099
0.053340003 -0.21759336 0.88900006 6179124
0.058551431 -0.21808288 0.89100003 8886189
0.46497145 -0.2320343 0.94800007 5587246
-0.22880001 -0.21371429 0.88000005 16695168
0.058551431 -0.21638571 0.89100003 8623540
nan nan nan 3418921
-0.47523808 -0.24095237 1 14596318
-0.22880001 -0.2120381 0.88000005 16711296
-0.17728572 -0.20480953 0.85000002 6441260
-0.16879238 -0.20432763 0.84800005 4929600
0.06367714 -0.23348287 0.96900004 8822204
0.46820953 -0.22649524 0.94000006 5915689
-0.47523808 -0.23904762 1 14789590
-0.22880001 -0.21036193 0.88000005 16711322
0.059011433 -0.21466477 0.89800006 9086660
0.46677145 -0.2223143 0.93000007 6175014
0.46854287 -0.2223143 0.93000007 3743781
nan nan nan 3484213
-0.18342859 -0.2029943 0.85600007 5331310
-0.18179812 -0.2029943 0.85600007 5725028
-0.17785239 -0.20038572 0.84500003 6118735
0.059011433 -0.2129543 0.89800006 9218252
nan nan nan 3418418
-0.44777334 -0.23382667 0.99400002 15586782
-0.18549143 -0.20183429 0.85800004 5056856
-0.17807144 -0.19548286 0.83100003 2236747
-0.16879238 -0.1994819 0.84800005 4468021
0.054060001 -0.21194953 0.90100002 5786672
0.059208572 -0.21194953 0.90100002 9415627
nan nan nan 3418415
-0.45963526 -0.23123334 0.99100006 12423847
-0.44777334 -0.23193333 0.99400002 15327463
-0.17965429 -0.1939 0.83100003 6111800
0.054060001 -0.21023335 0.90100002 6049330
0.059340004 -0.21070002 0.90300006 9548490
nan nan nan 5259556
nan nan nan 3353135
-0.45779714 -0.22749428 0.98300004 14074045
-0.45592478 -0.22749428 0.98300004 13615031
-0.43290761 -0.22240287 0.96100003 15128289
-0.17965429 -0.19231716 0.83100003 7167046
-0.17807144 -0.19231716 0.83100003 6570552
-0.16757144 -0.19671428 0.85000002 5198407
0.059340004 -0.20898001 0.90300006 9746895
nan nan nan 5909022
-0.22815619 -0.20289907 0.88400006 12973551
-0.16472001 -0.1955543 0.85200006 5457983
0.059471432 -0.20771906 0.90500003 9551573
-0.22903429 -0.20349143 0.89400005 11483782
-0.17174001 -0.18915144 0.83100003 5189672
-0.16757144 -0.1934762 0.85000002 4467771
-0.16595238 -0.1934762 0.85000002 4996157
0.061574284 -0.21327905 0.93700004 9356505
nan nan nan 3746871
-0.22903429 -0.20178857 0.89400005 14054537
-0.17332287 -0.18756858 0.83100003 6307903
0.061574284 -0.2114943 0.93700004 9686494
-0.22903429 -0.20008573 0.89400005 16693394
-0.22954667 -0.19882667 0.89600003 16711068
-0.16654572 -0.18218382 0.82100004 6180931
-0.15461905 -0.18861905 0.85000002 4404525
-0.1192181 -0.18395905 0.82900006 4005944
nan nan nan 4603681
-0.42838573 -0.21010001 0.95500004 14732000
-0.22903429 -0.19668001 0.89400005 16711064
-0.15336001 -0.18744001 0.85200006 4139055
-0.15173715 -0.18744001 0.85200006 4403507
-0.42614287 -0.2071905 0.95000005 14339042
-0.23005906 -0.19584954 0.89800006 16711317
-0.16892858 -0.17992859 0.82500005 5850204
-0.15737334 -0.17752953 0.81400001 4859954
-0.14814286 -0.18538097 0.85000002 4139314
-0.14294858 -0.18494478 0.84800005 4602670
-0.14083333 -0.18429048 0.84500003 4667952
-0.42255428 -0.20365143 0.94200003 14011602
-0.15544 -0.17554668 0.81200004 5058359
-0.16185333 -0.18462667 0.85400003 4726828
-0.1392238 -0.18268095 0.84500003 4073006
-0.13728859 -0.18224858 0.84300005 4206127
-0.13536096 -0.18181619 0.84100002 4403509
-0.17132667 -0.17764287 0.82900006 6896466
-0.16933811 -0.17721429 0.82700002 6634058
-0.15427239 -0.17442858 0.81400001 4993070
-0.15985143 -0.18257144 0.85200006 4860461
-0.15822859 -0.18257144 0.85200006 4793901
-0.15660572 -0.18257144 0.85200006 4727594
-0.13312286 -0.17935714 0.83700001 3942456
-0.13152857 -0.17935714 0.83700001 4008754
-0.12962382 -0.17892858 0.83500004 3943213
nan nan nan 3876362
-0.12455334 -0.17691335 0.83300006 3545904
-0.11503334 -0.17691335 0.83300006 3943725
-0.10974382 -0.17606382 0.82900006 4140087
nan nan nan 5123363
-0.42165715 -0.19784762 0.94000006 14070738
-0.4542219 -0.19543143 0.93700004 11834526
-0.55594289 -0.19068573 0.94000006 4467516
nan nan nan 4073246
-0.40162 -0.17458001 0.90300006 15064039
nan nan nan 4602912
-0.39761716 -0.16432571 0.89400005 15129576
0.21078859 -0.15425524 0.84800005 12761542
-0.45568287 -0.15868285 0.89100003 9338474
-0.45398575 -0.15868285 0.89100003 9135437
-0.45228857 -0.15868285 0.89100003 9006676
-0.42145717 -0.15921715 0.89400005 10916752
-0.3945038 -0.15797047 0.88700002 15326431
-0.20486666 -0.15636761 0.87800002 16696964
-0.20203714 -0.15381429 0.87300003 13810033
0.2132619 -0.14888096 0.84500003 12169135
-0.42163241 -0.15479811 0.89800006 10526106
-0.3913905 -0.15169525 0.88000005 14864603
-0.52821332 -0.15274666 0.89600003 5069405
-0.38827714 -0.14716287 0.87300003 14930909
-0.38827714 -0.1455 0.87300003 15063261
nan nan nan 8088911
-0.43592572 -0.13709906 0.86200005 8157042
-0.43428382 -0.13709906 0.86200005 6972265
nan nan nan 15655402
0.16843334 -0.12807143 0.81500006 5922456
0.20152667 -0.12838572 0.81700003 9738914
-0.43592572 -0.13381524 0.86200005 8217205
0.19923618 -0.12636381 0.81400001 9668495
-0.43428382 -0.13217334 0.86200005 7822461
-0.43063429 -0.13156 0.85800004 8220284
-0.37421429 -0.12956667 0.84500003 14931173
-0.37172288 -0.12926 0.84300005 15786487
-0.37084094 -0.12735143 0.84100002 15388909
-0.37084094 -0.12574953 0.84100002 15853028
-0.17207143 -0.12335715 0.82500005 14600393
-0.17008667 -0.12149048 0.82300001 14727333
-0.4100562 -0.11438 0.81700003 9732680
-0.40850002 -0.11438 0.81700003 10061137
-0.35738474 -0.11396001 0.81400001 16184047
nan nan nan 11245735
-0.35540766 -0.10516381 0.80600005 14800335
-0.47890955 -0.10478573 0.81500006 4467774
-0.34884 -0.096520007 0.79800004 16252648
-0.34840289 -0.094880961 0.79700005 16121086
-0.12588859 -0.089079052 0.77300006 13680520
-0.34097144 -0.086914286 0.78000003 15786468
-0.33948573 -0.086914286 0.78000003 16313326
-0.41185337 -0.085647628 0.78200006 5597015
-0.3390505 -0.083835244 0.77900004 15986928
nan nan nan 3952468
-0.33747429 -0.077200003 0.77200001 15457761
-0.40711334 -0.074355245 0.77300006 5334645
-0.40564099 -0.074355245 0.77300006 7106426
-0.3496905 -0.074355245 0.77300006 12487894
-0.34911907 -0.074547619 0.77500004 11228868
-0.34854001 -0.07474 0.77700001 11233714
-0.34705999 -0.07474 0.77700001 11238852
-0.057702858 -0.070525713 0.74800003 13408891
nan nan nan 7300728
-0.041356195 -0.067992389 0.73600006 10456646
nan nan nan 5401467
-0.35001999 -0.070299998 0.77700001 15057581
-0.39378574 -0.056052383 0.74500006 9852023
-0.39057431 -0.056202862 0.74700004 9334660
-0.018282857 -0.050785713 0.71100003 14010835
nan nan nan 2894899
-0.023566667 -0.047806669 0.70700002 14339288
-0.32111815 -0.044695243 0.72200006 12101983
-0.31885716 -0.043200001 0.72000003 9934250
-0.30925715 -0.043200001 0.72000003 15066608
-0.38360095 -0.042467616 0.73100001 8088350
-0.37907144 -0.042119049 0.72500002 7104072
-0.31348002 -0.041480005 0.71400005 13489337
-0.34204003 -0.040120002 0.71400005 9339790
-0.3402029 -0.040063813 0.71300006 9541277
-0.34620857 -0.038922857 0.71700001 10048105
nan nan nan 8683584
-0.3745648 -0.033553336 0.71900004 5796220
-0.30680001 -0.033040002 0.708 11173329
-0.035985716 -0.032060001 0.68700004 15654889
-0.022966666 -0.032153334 0.68900001 15196129
0.31389141 -0.031453334 0.67400002 8614741
nan nan nan 2429980
-0.37730384 -0.032183811 0.71900004 7170440
0.08471334 -0.030393332 0.67900002 8415842
nan nan nan 8484753
-0.36489049 -0.030128572 0.70300001 4740465
-0.30680001 -0.030342858 0.708 11573456
0.093766667 -0.027806668 0.67900002 8548958
0.09894 -0.027806668 0.67900002 7102803
0.099790484 -0.026396191 0.67600006 8153704
0.10107811 -0.026396191 0.67600006 7693671
nan nan nan 2891034
nan nan nan 2891293
0.2847743 -0.020837145 0.66300005 5124704
-0.3003 -0.017820001 0.69300002 15524079
-0.35893619 -0.016404763 0.68900001 7617118
-0.35762382 -0.016404763 0.68900001 4718935
-0.35631144 -0.016404763 0.68900001 5254224
-0.29076666 -0.01342 0.671 15063275
-0.29033333 -0.01212381 0.67000002 14404838
-0.29033333 -0.010847619 0.67000002 14404321
0.22896001 -0.0092571434 0.648 6906998
0.24377143 -0.0080228569 0.648 3681570
nan nan nan 6707277
0.22155429 -0.0030857143 0.648 4336669
-0.33856574 -0.0018914287 0.66200006 9863272
0.22912858 -0.0018428573 0.64500004 5977927
nan nan nan 5323587
-0.31538573 0.00063714286 0.66900003 9472147
-0.31411144 0.00063714286 0.66900003 7500182
nan nan nan 3551534
0.19891524 0.0030047621 0.63100004 3093039
nan nan nan 5452088
-0.33335906 0.010475239 0.64700001 7558213
-0.33038285 0.011689524 0.64600003 6910536
0.12104762 0.013580953 0.62 9087155
-0.29992002 0.017786669 0.64400005 7036276
-0.32322285 0.021066668 0.63200003 5732725
0.14838572 0.020366667 0.611 5062193
nan nan nan 4069430
-0.31689617 0.022164762 0.62900001 5791600
-0.27050573 0.022094287 0.62700003 13151158
-0.27050573 0.023288572 0.62700003 12955063
0.18556859 0.022545716 0.60700005 2764848
-0.31910574 0.02463905 0.63100004 8746330
nan nan nan 3022899
0.18380477 0.024776191 0.60500002 3213088
0.12524 0.025971429 0.60600001 4663334
0.1273381 0.027080953 0.60500002 4868158
-0.28165713 0.028933333 0.62 6912137
-0.28638095 0.030114286 0.62 4456816
-0.26532856 0.031042857 0.61500001 12560565
0.16372667 0.03023524 0.59900004 1712433
-0.25928855 0.033770476 0.60100001 12497076
0.22570573 0.033208571 0.59100002 4731448
-0.25928855 0.034915239 0.60100001 12103348
0.049300004 0.034566667 0.59500003 9337236
-0.30315048 0.03624 0.60400003 5518413
0.080647625 0.036152385 0.58400005 6377556
0.1988 0.036400001 0.588 2627111
0.26307812 0.036152385 0.58400005 4401968
0.13920286 0.037456192 0.58700001 2300697
0.20293429 0.037456192 0.58700001 5001040
0.048222858 0.038245715 0.58200002 12361110
nan nan nan 6379604
nan nan nan 2301487
0.20405239 0.038574286 0.58700001 4669256
0.043788571 0.039354287 0.58200002 10725290
0.077442862 0.039557148 0.58500004 5257521
0.13920286 0.039692383 0.58700001 3416638
-0.27211717 0.043926667 0.59900004 5121072
0.23215145 0.042460002 0.57900006 2958115
-0.25470763 0.045745719 0.59300005 12232636
0.053858094 0.044974286 0.583 5392722
nan nan nan 3284768
0.057700001 0.04561048 0.57700002 5580436
0.11304287 0.045768574 0.57900006 4597542
nan nan nan 2957088
nan nan nan 3091237
nan nan nan 8152405
0.11304287 0.046871431 0.57900006 6049083
0.17400001 0.046952382 0.58000004 4732715
0.17510478 0.046952382 0.58000004 4469017
0.17590573 0.046871431 0.57900006 4274740
nan nan nan 7236684
nan nan nan 3487540
-0.29736 0.04984 0.588 6251862
nan nan nan 4267849
nan nan nan 2961193
-0.29624 0.050960001 0.588 4195132
nan nan nan 4795198
nan nan nan 2622007
0.15607335 0.050574288 0.57100004 6246733
nan nan nan 3215916
nan nan nan 3482919
0.15415999 0.052102856 0.56400001 8280398
nan nan nan 2890287
nan nan nan 2628637
-0.018900001 0.053460002 0.56700003 11246264
nan nan nan 4934720
0.092014283 0.053271428 0.565 4014384
0.09456858 0.052894291 0.56100005 7696684
nan nan nan 2367002
nan nan nan 2432536
-0.26328573 0.05709143 0.58200002 6499127
-0.26040667 0.057189524 0.583 4726590
-0.25929621 0.057189524 0.583 6902899
-0.028519047 0.055423807 0.565 11580093
-0.027491432 0.055521909 0.56600004 11246775
nan nan nan 2234153
nan nan nan 5581871
0.012332381 0.058444764 0.56300002 1331293
0.065482862 0.058029521 0.55900002 3225151
0.18367143 0.058029521 0.55900002 2492218
-0.034542859 0.058988575 0.55800003 9935758
-0.048620004 0.06037429 0.56100005 8284562
0.008042858 0.060589526 0.56300002 8537671
0.12769429 0.06037429 0.56100005 3884353
-0.043277148 0.061442863 0.56100005 8425336
nan nan nan 3349021
-0.28500003 0.064600006 0.57000005 4135492
-0.28441241 0.064713337 0.57100004 4664629
-0.050395243 0.063126668 0.55700004 8356205
-0.071357146 0.065014288 0.55500001 9878463
0.16005237 0.064545713 0.551 3414581
0.10164667 0.065833338 0.55300003 3146769
0.1613943 0.065714292 0.55200005 3085352
nan nan nan 3088670
-0.065357141 0.066402853 0.54900002 12634021
0.045322862 0.066160962 0.54700005 4139331
0.10404858 0.066402853 0.54900002 3152933
0.22144572 0.065556198 0.54200006 3489070
0.22351049 0.065556198 0.54200006 4210194
-0.2480619 0.069414288 0.565 2638696
-0.06861905 0.067571431 0.55000001 11695450
-0.067571431 0.067571431 0.55000001 14003855
-0.014194286 0.067817152 0.55200005 8403763
-0.25344285 0.071566664 0.565 8951639
-0.25191998 0.071440004 0.56400001 7747903
-0.2508457 0.071440004 0.56400001 7012648
-0.24932858 0.071313336 0.56300002 6368311
-0.077905715 0.069540001 0.54900002 14007438
-0.094464764 0.070457146 0.54800004 9803986
-0.093591429 0.07058572 0.54900002 9009109
-0.09271428 0.070714287 0.55000001 8279986
nan nan nan 3739933
-0.086428568 0.071761906 0.55000001 12230004
-0.085225724 0.071631432 0.54900002 14074786
-0.084026672 0.071500957 0.54800004 15913129
-0.033552382 0.070718102 0.54200006 5071746
nan nan nan 1382706
0.078232385 0.070979051 0.54400003 984610
0.25881144 0.070956193 0.53600001 3094545
0.26138574 0.070823811 0.53500003 4007707
nan nan nan 3087647
0.077800952 0.07264857 0.54100001 2890271
0.25622571 0.072111428 0.537 1970951
-0.27334002 0.075313337 0.55300003 3676480
nan nan nan 15391974
nan nan nan 7353628
nan nan nan 11641821
nan nan nan 6314557
nan nan nan 4473630
0.079861909 0.073679045 0.54100001 3947571
0.13782288 0.073815241 0.54200006 3616302
0.13834287 0.073542856 0.54000002 3154222
0.13937144 0.073542856 0.54000002 2757951
0.19820477 0.07286191 0.53500003 3617858
-0.1448143 0.075261906 0.54500002 14798556
-0.11617239 0.075538106 0.54700005 12497597
-0.11492 0.075399995 0.546 10912682
-0.11367143 0.075261906 0.54500002 8410263
-0.10291144 0.07498572 0.54300004 10977626
-0.099808581 0.07498572 0.54300004 14271124
0.19885145 0.073742867 0.53400004 4405059
-0.26976189 0.077 0.55000001 5189950
-0.26822573 0.076860003 0.54900002 7035998
-0.27290478 0.078047626 0.55000001 8137533
-0.27284575 0.078331433 0.55200005 7276329
-0.2713019 0.078189522 0.551 6435903
-0.1118 0.077480003 0.546 10445396
-0.10704858 0.077054292 0.54300004 14467759
0.056451432 0.076794289 0.53400004 3418944
0.2322562 0.076075241 0.52900004 1445408
0.23326382 0.076075241 0.52900004 1840676
0.2347143 0.076219052 0.53000003 2498088
-0.162 0.078685716 0.54000002 13547716
-0.16097143 0.078685716 0.54000002 13482180
-0.0025571429 0.078248575 0.537 1251125
-0.00051047618 0.078102857 0.53600001 393552
0.00050952384 0.077957146 0.53500003 3277167
0.054417148 0.077811427 0.53400004 2367533
0.11996191 0.078102857 0.53600001 10181717
-0.12497143 0.079714291 0.54000002 12103065
-0.12394285 0.079714291 0.54000002 12898476
0.00050952384 0.078976192 0.53500003 5191251
-0.12632287 0.080294281 0.537 15128506
nan nan nan 6106927
0.11197333 0.079546668 0.53200001 5062439
0.11319906 0.079696193 0.53300005 4268065
-0.23642287 0.082982861 0.54800004 7098459
-0.13221334 0.081165716 0.53600001 11115417
-0.13119237 0.081165716 0.53600001 11975065
-0.13017143 0.081165716 0.53600001 12962970
-0.12915048 0.081165716 0.53600001 13951152
nan nan nan 6182971
0.11421429 0.080711439 0.53300005 4077368
nan nan nan 3484461
-0.1352762 0.082186669 0.53600001 13413779
-0.13425525 0.082186669 0.53600001 14466976
nan nan nan 3288111
-0.23943716 0.084294297 0.54300004 6304594
-0.23840287 0.084294297 0.54300004 3802943
-0.1373181 0.083207622 0.53600001 13620630
nan nan nan 3287854
-0.025694286 0.084136195 0.52900004 5721959
0.03061619 0.0838181 0.52700001 6117212
0.03156 0.083659053 0.52600002 4143188
nan nan nan 2561085
-0.14946666 0.085626662 0.53200001 14731181
-0.022628572 0.084982857 0.528 2116721
-0.26490098 0.088641912 0.53800005 5522005
nan nan nan 9733010
-0.16162667 0.087653339 0.53200001 13283499
nan nan nan 3670297
0.15191905 0.08617048 0.523 2228507
nan nan nan 2036755
0.14992666 0.087166667 0.523 3548206
0.20966667 0.086333334 0.51800001 2300428
0.21065333 0.086333334 0.51800001 2235708
nan nan nan 9994384
nan nan nan 7494022
nan nan nan 4272940
nan nan nan 9863569
-0.22535524 0.090844765 0.52700001 9798288
-0.045880001 0.091266669 0.51800001 4937580
-0.044806667 0.091090478 0.51700002 8153712
0.0073428573 0.090561904 0.514 6571093
0.06548667 0.091090478 0.51700002 3678251
0.066471435 0.091090478 0.51700002 528419
0.068440951 0.091090478 0.51700002 131892
0.069425717 0.091090478 0.51700002 2295116
nan nan nan 6830460
0.069425717 0.092075236 0.51700002 3672126
nan nan nan 3414842
-0.22378191 0.093780003 0.52100003 5382215
nan nan nan 3085867
-0.22576667 0.094772384 0.52100003 3939874
nan nan nan 4407654
nan nan nan 3616800
0.18444669 0.092953339 0.51100004 1315099
0.24431431 0.092771441 0.51000005 1709331
-0.16882096 0.096683815 0.52600002 5713467
nan nan nan 12158826
nan nan nan 4931157
-0.16882096 0.097685717 0.52600002 9534029
-0.16686191 0.09712857 0.523 8418563
-0.1658657 0.09712857 0.523 7303464
-0.16486953 0.09712857 0.523 8421965
-0.16356 0.096942857 0.52200001 9606011
nan nan nan 2960200
nan nan nan 2697799
0.22319999 0.097440004 0.50400001 919840
0.22512001 0.097440004 0.50400001 2955805
nan nan nan 2952236
0.15696 0.098399997 0.50400001 3221535
-0.24769048 0.10152858 0.51500005 4403790
-0.19214858 0.10172572 0.51600003 5256540
0.04838381 0.10012095 0.50300002 9731959
0.049341906 0.10012095 0.50300002 7891306
nan nan nan 1574697
0.21682288 0.098727621 0.49600002 2627856
nan nan nan 1903885
nan nan nan 3736893
-0.24818856 0.10426857 0.514 2691371
-0.24720953 0.10426857 0.514 4992838
-0.13065715 0.10345715 0.51000005 11964519
-0.12968573 0.10345715 0.51000005 12226644
-0.25014856 0.1048381 0.51200002 7302969
-0.24917334 0.1048381 0.51200002 5723394
-0.03557143 0.10386857 0.49800003 5925513
nan nan nan 3618626
nan nan nan 1116692
nan nan nan 4074540
-0.095331438 0.10861143 0.49800003 8216665
nan nan nan 9401197
nan nan nan 3157782
nan nan nan 2894145
nan nan nan 1643550
-0.11738572 0.11267143 0.49500003 6512785
nan nan nan 7034204
nan nan nan 4730184
nan nan nan 6573106
nan nan nan 2955062
nan nan nan 1969676
nan nan nan 5186079
nan nan nan 2759968
nan nan nan 1445905
0.045257144 0.11657143 0.48000002 2956074
-0.14059049 0.12030858 0.48400003 1518176
-0.080577143 0.11972762 0.47800002 4195406
-0.080408581 0.12038572 0.47700003 8409963
nan nan nan 8416112
nan nan nan 9730947
nan nan nan 9008500
nan nan nan 8876914
nan nan nan 4063781
nan nan nan 5058096
nan nan nan 7373463
-0.055476192 0.12737334 0.46600002 9272439
nan nan nan 4796509
nan nan nan 1051415
nan nan nan 3225436
nan nan nan 5390148
nan nan nan 5258820
nan nan nan 4994618
nan nan nan 5459041
nan nan nan 5524794
nan nan nan 8811378
nan nan nan 6181432
nan nan nan 8217966
nan nan nan 5257013
nan nan nan 8874093
nan nan nan 7956074
nan nan nan 7625310
nan nan nan 5130303
nan nan nan 3219999
nan nan nan 4735538
nan nan nan 4993338
nan nan nan 4665146
nan nan nan 6240277
nan nan nan 3213092
nan nan nan 4212511
nan nan nan 4540732
nan nan nan 8084818
nan nan nan 3027234
nan nan nan 3875354
nan nan nan 5524024
nan nan nan 3878705
nan nan nan 2566165
0.23550002 -0.55578005 1.4130001 2558242
0.24088287 -0.55578005 1.4130001 2623263
0.21236669 -0.54212862 1.3850001 3221280
0.24064381 -0.54643428 1.396 4142106
0.20607619 -0.5437752 1.396 4138287
0.2078381 -0.54143816 1.3900001 4138542
nan nan nan 5126694
nan nan nan 5192745
0.16025144 -0.53026283 1.368 5258538
0.16285715 -0.53026283 1.368 5324332
0.16546287 -0.53026283 1.368 5389866
0.16806857 -0.53026283 1.368 5389863
nan nan nan 5521449
nan nan nan 5587241
nan nan nan 5522218
0.24732 -0.5325886 1.3740001 3944219
nan nan nan 3409685
0.12693143 -0.52997148 1.3740001 3476758
0.13002001 -0.53190005 1.3790001 3544091
0.13216572 -0.52997148 1.3740001 3741729
0.13478287 -0.52997148 1.3740001 3873842
0.08767429 -0.52473712 1.3740001 3803416
0.089897141 -0.52244568 1.368 3870495
0.092502862 -0.52244568 1.368 3937827
0.095108569 -0.52244568 1.368 4070952
0.098142862 -0.52473712 1.3740001 4269615
0.10076001 -0.52473712 1.3740001 4534327
0.25366098 -0.51633525 1.3520001 4404510
0.053846668 -0.52139336 1.3790001 4793890
0.056268577 -0.51950288 1.3740001 4927796
0.058885716 -0.51950288 1.3740001 5061959
0.061502859 -0.51950288 1.3740001 5261890
0.064120002 -0.51950288 1.3740001 5654589
nan nan nan 4139814
nan nan nan 7163706
nan nan nan 4668693
nan nan nan 6900539
nan nan nan 7425088
nan nan nan 4401950
nan nan nan 3741974
nan nan nan 5257001
nan nan nan 4469024
nan nan nan 5586727
nan nan nan 4862235
nan nan nan 4135455
nan nan nan 4931122
nan nan nan 4335412
0.30852288 -0.47207716 1.3010001 3148812
0.31100097 -0.47207716 1.3010001 3280659
0.31227428 -0.47026286 1.296 3346970
0.3135286 -0.46844858 1.291 3413541
0.31500858 -0.46699715 1.2870001 3479856
0.31746 -0.46699715 1.2870001 3546140
0.31991145 -0.46699715 1.2870001 3347720
nan nan nan 7752765
0.30473337 -0.47140384 1.3060001 5521194
0.30722097 -0.47140384 1.3060001 5522219
0.32481429 -0.46454573 1.2870001 5391138
nan nan nan 2491677
nan nan nan 3941935
0.32736003 -0.43765336 1.2320001 4670497
nan nan nan 4007714
0.33070573 -0.43354005 1.2270001 5455388
nan nan nan 5386786
0.33653146 -0.41922858 1.2060001 4997150
0.33995238 -0.42061907 1.21 4535320
0.34225717 -0.42061907 1.21 3808530
0.34342289 -0.41693148 1.2060001 5454629
0.34917143 -0.41600955 1.21 4601891
0.3526381 -0.41738477 1.2140001 3875377
nan nan nan 12431479
0.24084763 -0.41139999 1.21 6901346
0.24234858 -0.41004002 1.2060001 6836832
0.24694286 -0.41004002 1.2060001 6902366
0.24924003 -0.41004002 1.2060001 6902877
0.25237146 -0.41139999 1.21 6838109
0.35602096 -0.40868002 1.202 4667173
0.35950288 -0.41004002 1.2060001 4071715
-0.10789999 -0.42092857 1.245 14002081
-0.10552857 -0.42092857 1.245 14067620
-0.10348858 -0.42228097 1.2490001 13805736
-0.10110953 -0.42228097 1.2490001 13543594
-0.098414287 -0.42092857 1.245 13478061
0.22626859 -0.40774289 1.2060001 7758431
0.22932382 -0.40909526 1.21 7824474
0.23009714 -0.40639049 1.202 7956309
0.23545715 -0.40774289 1.2060001 8152922
0.2377543 -0.40774289 1.2060001 8152669
0.36122954 -0.40199524 1.189 3349278
-0.096042857 -0.41855717 1.245 13540771
-0.093671434 -0.41855717 1.245 13541542
-0.090933338 -0.4168762 1.24 13542571
0.22002001 -0.40242001 1.197 8020332
0.22322857 -0.40410095 1.202 8086375
0.36001429 -0.39838573 1.1850001 4797731
0.36227143 -0.39838573 1.1850001 4334114
-0.088285714 -0.41317716 1.2360001 13738138
-0.085931435 -0.41317716 1.2360001 13868957
-0.083577149 -0.41317716 1.2360001 13737887
-0.081222862 -0.41317716 1.2360001 13606302
-0.078868575 -0.41317716 1.2360001 13540510
-0.076514289 -0.41317716 1.2360001 13541539
-0.074160002 -0.41317716 1.2360001 13411752
-0.071805716 -0.41317716 1.2360001 13346985
-0.069226667 -0.41184002 1.2320001 13216939
-0.066880003 -0.41184002 1.2320001 13086384
0.19266 -0.40013999 1.197 8942695
0.20337811 -0.39880291 1.1930001 9271663
-0.36875716 -0.41381428 1.245 12823407
-0.33551526 -0.40517241 1.2190001 14470051
-0.33319336 -0.40517241 1.2190001 14666923
-0.064533345 -0.40949339 1.2320001 12949156
-0.045933332 -0.30246666 0.91000003 13016740
-0.044199999 -0.30246666 0.91000003 12951461
-0.056886673 -0.40517241 1.2190001 12886446
-0.054564763 -0.40517241 1.2190001 12886456
-0.05224286 -0.40517241 1.2190001 12820925
-0.050084762 -0.40650192 1.223 12821954
0.36281431 -0.38722384 1.1650001 5128245
0.36503336 -0.38722384 1.1650001 4598823
0.36851332 -0.38855335 1.169 4069398
-0.047599051 -0.40285051 1.2190001 11633297
-0.033800002 -0.30073336 0.91000003 11567503
-0.032066669 -0.30073336 0.91000003 11569297
-0.030333333 -0.30073336 0.91000003 11636627
-0.0286 -0.30073336 0.91000003 11705243
-0.023168571 -0.29775906 0.90100002 12428973
-0.019473333 -0.29210001 0.88900006 11962031
-0.01778 -0.29210001 0.88900006 12030384
-0.016086668 -0.29210001 0.88900006 12161201
-0.014393334 -0.29210001 0.88900006 12226488
-0.017099999 -0.3933 1.197 12227775
-0.011006667 -0.29210001 0.88900006 12229313
-0.0093133338 -0.29210001 0.88900006 12429508
0.37134191 -0.38015714 1.1570001 5323318
nan nan nan 4664616
nan nan nan 4069658
-0.0076371427 -0.29106 0.89100003 10977428
-0.0059266672 -0.2904067 0.88900006 11176856
-0.0042238096 -0.28975332 0.88700002 11375780
-0.0025200001 -0.28812 0.88200003 11706031
0.0025342857 -0.28806382 0.88700002 11373992
0.0042238096 -0.28806382 0.88700002 11308197
0.0079799993 -0.38874 1.197 11307951
0.012498097 -0.38744098 1.1930001 11175105
0.014671429 -0.38484287 1.1850001 11505865
0.016928572 -0.38484287 1.1850001 11836622
0.38103905 -0.37445047 1.153 4666409
0.38456479 -0.37574953 1.1570001 4070440
0.021442859 -0.38258573 1.1850001 9532814
0.023700003 -0.38258573 1.1850001 9798035
0.025957143 -0.38258573 1.1850001 10065057
0.02811905 -0.38129431 1.1810001 10987439
0.030471429 -0.38258573 1.1850001 11972022
0.38475236 -0.36741143 1.138 3285280
0.034867622 -0.3790448 1.1810001 10905779
0.037117146 -0.3790448 1.1810001 11172291
0.039233334 -0.37776098 1.177 11504577
0.04147524 -0.37776098 1.177 11636928
0.38339999 -0.36396003 1.1340001 4994613
0.38454002 -0.36299714 1.131 4398887
0.049928572 -0.37169048 1.1650001 10060706
0.052326668 -0.37296668 1.169 10258848
0.054553334 -0.37296668 1.169 10588318
0.056585718 -0.37169048 1.1650001 10984612
0.043762859 -0.27496287 0.86700004 10050963
0.045309529 -0.27432859 0.86500007 10181274
0.046957146 -0.27432859 0.86500007 10184353
0.065461911 -0.36947146 1.1650001 10253219
0.3872 -0.35519999 1.12 5194039
0.38933331 -0.35519999 1.12 4596775
0.39146668 -0.35519999 1.12 3934234
0.050078098 -0.27173525 0.86200005 8805243
0.07162381 -0.36473048 1.1570001 6173533
0.074082859 -0.36599144 1.161 3286134
0.076294288 -0.36599144 1.161 6165903
0.050078098 -0.27009335 0.86200005 7626320
0.051720005 -0.27009335 0.86200005 6315309
0.056514286 -0.26946667 0.86000001 5774164
0.39573333 -0.35093334 1.12 5586464
0.058152381 -0.26782858 0.86000001 10461598
0.39464286 -0.34412855 1.105 5187369
nan nan nan 10120562
-0.49743715 -0.35688096 1.153 12168070
0.058152381 -0.26619047 0.86000001 8038573
-0.51444381 -0.35130098 1.1420001 11764857
-0.51585716 -0.35376194 1.1500001 12292730
-0.51500666 -0.35468477 1.153 12885639
0.058287621 -0.26516765 0.86200005 5663367
0.059929527 -0.26516765 0.86200005 9747647
0.41096571 -0.33776572 1.098 3805209
nan nan nan 10591350
-0.52532005 -0.34912574 1.1420001 11114873
-0.52497715 -0.35034856 1.146 11703922
0.060138099 -0.26444286 0.86500007 7168935
0.40929523 -0.33261716 1.0880001 4010506
0.085094288 -0.34360856 1.131 9741495
0.41023335 -0.32963336 1.085 6571297
0.41078001 -0.32635906 1.0810001 6509096
0.034604765 -0.25350001 0.84500003 9789504
0.062857151 -0.264 0.88000005 13991547
0.087663814 -0.33270001 1.1090001 5270433
0.4119429 -0.3204 1.0680001 6243110
0.41397718 -0.3204 1.0680001 5843741
-0.55382669 -0.33923239 1.138 8947611
0.064533338 -0.2623238 0.88000005 12161411
0.066209525 -0.2623238 0.88000005 9529154
0.088885717 -0.32730857 1.098 7627726
0.41514003 -0.31926003 1.0710001 6178863
0.41718003 -0.31926003 1.0710001 4927003
0.41922003 -0.31926003 1.0710001 3740944
0.092814289 -0.32432857 1.095 6659231
0.41804573 -0.31633145 1.0680001 7030576
0.42211431 -0.31633145 1.0680001 2693918
0.095160007 -0.32312572 1.098 9597350
-0.22529334 -0.24969333 0.85400003 8280407
-0.12225429 -0.24530764 0.83900005 16434858
nan nan nan 14925933
0.099071428 -0.32015714 1.095 5480089
0.41898572 -0.3084619 1.0550001 6899765
0.42180192 -0.30758476 1.052 4332804
-0.23017333 -0.24806666 0.85400003 10986155
0.10078763 -0.31690955 1.0910001 9081242
0.42180192 -0.30558097 1.052 5719297
-0.54099429 -0.32204571 1.1160001 10128025
-0.23017333 -0.24644002 0.85400003 10996660
-0.22529334 -0.24644002 0.85400003 7428940
-0.18095143 -0.24153429 0.83700001 9611970
-0.17935714 -0.24153429 0.83700001 11649227
-0.11320286 -0.24326573 0.84300005 16371365
0.021368571 -0.23980287 0.83100003 9592385
0.052260004 -0.25134572 0.87100005 5520682
0.10436668 -0.31310001 1.085 8297637
0.10643334 -0.31310001 1.085 11711424
0.42580953 -0.30357715 1.052 6967858
0.42781335 -0.30357715 1.052 6764836
-0.53953999 -0.31906 1.113 9012627
-0.17332287 -0.23822001 0.83100003 9961925
-0.17174001 -0.23822001 0.83100003 10093020
-0.17015715 -0.23822001 0.83100003 9908724
-0.16857429 -0.23822001 0.83100003 9724409
-0.16699143 -0.23822001 0.83100003 9872126
-0.1650105 -0.23764668 0.82900006 10085370
-0.16382572 -0.23822001 0.83100003 9689847
-0.16224286 -0.23822001 0.83100003 9359861
-0.1595 -0.23650001 0.82500005 9819891
-0.10710001 -0.23879334 0.83300006 15973800
-0.10500667 -0.23764668 0.82900006 15712676
0.019285716 -0.23220001 0.81000006 7295562
0.021368571 -0.23822001 0.83100003 6046501
nan nan nan 14073527
0.10810001 -0.30988666 1.0810001 10655985
0.11015905 -0.30988666 1.0810001 11584479
0.4281829 -0.30042669 1.0480001 5588516
-0.2241905 -0.2437562 0.85600007 7099737
0.019285716 -0.23065716 0.81000006 4985142
0.11015905 -0.30782765 1.0810001 8425900
0.11086858 -0.30412573 1.0680001 11451600
nan nan nan 6831395
-0.23015238 -0.24325714 0.86000001 12059003
-0.2241905 -0.24212573 0.85600007 7099988
-0.14814 -0.23279142 0.82300001 8936385
-0.14152478 -0.23222572 0.82100004 9804000
-0.13962001 -0.23166002 0.81900007 10465254
0.11086858 -0.30209145 1.0680001 10260436
0.11216287 -0.30011147 1.0610001 10403796
nan nan nan 5786156
-0.53210855 -0.3096095 1.102 9934516
-0.23015238 -0.24161904 0.86000001 14705022
-0.091482863 -0.23066191 0.82100004 15847599
-0.089919046 -0.23066191 0.82100004 15056557
0.014620952 -0.22700953 0.80800003 4728338
0.052379999 -0.24527143 0.87300003 4399903
0.11450667 -0.29893333 1.064 9810091
0.11587621 -0.29724762 1.0580001 13287107
0.43260002 -0.289381 1.0300001 6900527
0.43652382 -0.289381 1.0300001 3871251
-0.23068763 -0.24053906 0.86200005 15712640
-0.092420958 -0.22379619 0.80200005 15648189
-0.090893336 -0.22379619 0.80200005 15316668
-0.089365721 -0.22379619 0.80200005 15050933
0.013049524 -0.22491241 0.80600005 5516545
0.11587621 -0.29523239 1.0580001 11899321
0.43482858 -0.28630286 1.026 5522210
0.43678287 -0.28630286 1.026 4206611
-0.23068763 -0.23889714 0.86200005 16703360
0.11922667 -0.2915543 1.052 9938879
0.43553716 -0.28102285 1.0140001 6432027
-0.23068763 -0.23725525 0.86200005 16711295
-0.10516381 -0.22184192 0.80600005 9213874
0.4342486 -0.27826571 1.011 6771498
0.43617427 -0.27826571 1.011 5324545
-0.22904573 -0.23561335 0.86200005 12158317
0.006831429 -0.21784668 0.79700005 4725033
nan nan nan 6506535
-0.23037429 -0.23532858 0.86700004 13294297
-0.088808581 -0.21632859 0.79700005 8750004
-0.087290481 -0.21632859 0.79700005 9080232
0.0022542858 -0.21415715 0.78900003 7760213
0.0037761906 -0.21524286 0.79300004 6042942
0.11628 -0.27848572 1.026 14271925
nan nan nan 6443557
0.11754287 -0.27491432 1.0200001 14206384
0.12018858 -0.27653143 1.026 14073261
0.12850477 -0.27760953 1.0300001 8744852
nan nan nan 6373673
nan nan nan 5710107
-0.51846665 -0.28849337 1.0780001 9733795
nan nan nan 3810312
0.05796 -0.23435999 0.88200003 7432091
nan nan nan 6571311
nan nan nan 5973019
-0.2232524 -0.22819526 0.86500007 6838364
-0.061973337 -0.20682667 0.78400004 6370177
-0.060480002 -0.20682667 0.78400004 6374286
-0.057493336 -0.20682667 0.78400004 7695248
0.058091432 -0.23320763 0.88400006 7696283
-0.22872287 -0.22707145 0.86700004 16704909
-0.055857148 -0.20480955 0.78200006 3801413
-0.054367624 -0.20480955 0.78200006 4804730
-0.0066857147 -0.20428573 0.78000003 7686735
0.058091432 -0.23152383 0.88400006 7895194
0.45030764 -0.2574524 0.98300004 6573620
0.45310003 -0.2579762 0.98500007 5715488
0.45497623 -0.2579762 0.98500007 4267531
-0.22925048 -0.22594 0.86900002 16711317
-0.045139998 -0.20202 0.77700001 5911902
-0.0096199997 -0.20202 0.77700001 8287843
nan nan nan 7894937
-0.22977811 -0.22480096 0.87100005 16711319
-0.036026664 -0.19924952 0.77200001 4078405
-0.012499048 -0.19924952 0.77200001 10843474
-0.011042858 -0.19950764 0.77300006 8021308
-0.0095952386 -0.20002382 0.77500004 5190452
-0.029988572 -0.19675428 0.76800001 5779293
-0.028525714 -0.19675428 0.76800001 5914738
-0.02702762 -0.1964981 0.76700002 6050421
-0.025566667 -0.1964981 0.76700002 6444920
-0.024105715 -0.1964981 0.76700002 6904953
-0.022644762 -0.1964981 0.76700002 7168378
-0.021183809 -0.1964981 0.76700002 7497334
-0.019722857 -0.1964981 0.76700002 7827827
-0.013897142 -0.19675428 0.76800001 7563867
-0.012466667 -0.19726667 0.77000004 6181934
0.058551431 -0.22826573 0.89100003 7830429
0.45312288 -0.24824858 0.96900004 6904112
0.45121238 -0.24619904 0.96100003 5456385
0.45304286 -0.24619904 0.96100003 4074498
-0.013879048 -0.19503714 0.76700002 4143677
0.058551431 -0.22656856 0.89100003 7766176
0.45304286 -0.24436857 0.96100003 7032614
0.45487332 -0.24436857 0.96100003 6307871
0.45670381 -0.24436857 0.96100003 5579031
0.45670381 -0.24253809 0.96100003 6247459
0.45853427 -0.24253809 0.96100003 4992012
0.053460002 -0.22317429 0.89100003 5981742
0.45892763 -0.2399562 0.95800006 7291691
0.45871431 -0.23614286 0.95000005 5261873
0.46052381 -0.23614286 0.95000005 4664095
0.46233335 -0.23614286 0.95000005 4131857
-0.18832001 -0.21114667 0.85600007 7626319
0.058420002 -0.21928668 0.88900006 9149099
0.053340003 -0.21759336 0.88900006 6179124
0.058551431 -0.21808288 0.89100003 8886189
0.46497145 -0.2320343 0.94800007 5587246
-0.22880001 -0.21371429 0.88000005 16695168
0.058551431 -0.21638571 0.89100003 8623540
nan nan nan 3418921
-0.47523808 -0.24095237 1 14596318
-0.22880001 -0.2120381 0.88000005 16711296
-0.17728572 -0.20480953 0.85000002 6441260
-0.16879238 -0.20432763 0.84800005 4929600
0.06367714 -0.23348287 0.96900004 8822204
0.46820953 -0.22649524 0.94000006 5915689
nan nan nan 3484463
-0.47523808 -0.23904762 1 14789590
-0.22880001 -0.21036193 0.88000005 16711322
-0.16879238 -0.20271239 0.84800005 5125174
0.059011433 -0.21466477 0.89800006 9086660
0.46677145 -0.2223143 0.93000007 6175014
0.46854287 -0.2223143 0.93000007 3743781
nan nan nan 3484213
-0.19128191 -0.20441715 0.86200005 8745312
-0.18342859 -0.2029943 0.85600007 5331310
-0.18179812 -0.2029943 0.85600007 5725028
-0.17785239 -0.20038572 0.84500003 6118735
0.059011433 -0.2129543 0.89800006 9218252
nan nan nan 3418418
-0.44777334 -0.23382667 0.99400002 15586782
-0.18549143 -0.20183429 0.85800004 5056856
-0.17807144 -0.19548286 0.83100003 2236747
-0.16879238 -0.1994819 0.84800005 4468021
0.054060001 -0.21194953 0.90100002 5786672
0.059208572 -0.21194953 0.90100002 9415627
nan nan nan 5713698
nan nan nan 3418415
-0.45963526 -0.23123334 0.99100006 12423847
-0.44777334 -0.23193333 0.99400002 15327463
-0.17965429 -0.1939 0.83100003 6111800
0.054060001 -0.21023335 0.90100002 6049330
0.059340004 -0.21070002 0.90300006 9548490
nan nan nan 5259556
nan nan nan 3353135
-0.45779714 -0.22749428 0.98300004 14074045
-0.45592478 -0.22749428 0.98300004 13615031
-0.43290761 -0.22240287 0.96100003 15128289
-0.17965429 -0.19231716 0.83100003 7167046
-0.17807144 -0.19231716 0.83100003 6570552
-0.16757144 -0.19671428 0.85000002 5198407
0.054060001 -0.20851715 0.90100002 6311216
0.059340004 -0.20898001 0.90300006 9746895
nan nan nan 6179625
nan nan nan 5909022
-0.22815619 -0.20289907 0.88400006 12973551
-0.16472001 -0.1955543 0.85200006 5457983
0.059471432 -0.20771906 0.90500003 9551573
nan nan nan 3681331
-0.22903429 -0.20349143 0.89400005 11483782
-0.17174001 -0.18915144 0.83100003 5189672
-0.16757144 -0.1934762 0.85000002 4467771
-0.16595238 -0.1934762 0.85000002 4996157
0.061574284 -0.21327905 0.93700004 9356505
nan nan nan 3746871
-0.22903429 -0.20178857 0.89400005 14054537
-0.17332287 -0.18756858 0.83100003 6307903
0.061574284 -0.2114943 0.93700004 9686494
nan nan nan 3812406
-0.22903429 -0.20008573 0.89400005 16693394
nan nan nan 4468513
-0.22954667 -0.19882667 0.89600003 16711068
-0.16654572 -0.18218382 0.82100004 6180931
-0.15461905 -0.18861905 0.85000002 4404525
-0.12050572 -0.18351525 0.82700002 4336688
-0.1192181 -0.18395905 0.82900006 4005944
nan nan nan 4603681
-0.42838573 -0.21010001 0.95500004 14732000
-0.22903429 -0.19668001 0.89400005 16711064
-0.15336001 -0.18744001 0.85200006 4139055
-0.15173715 -0.18744001 0.85200006 4403507
-0.42614287 -0.2071905 0.95000005 14339042
-0.23005906 -0.19584954 0.89800006 16711317
-0.16892858 -0.17992859 0.82500005 5850204
-0.15737334 -0.17752953 0.81400001 4859954
-0.1501143 -0.18581715 0.85200006 3942193
-0.14814286 -0.18538097 0.85000002 4139314
-0.14456381 -0.18494478 0.84800005 4469549
-0.14294858 -0.18494478 0.84800005 4602670
-0.14083333 -0.18429048 0.84500003 4667952
-0.42255428 -0.20365143 0.94200003 14011602
-0.15544 -0.17554668 0.81200004 5058359
-0.16185333 -0.18462667 0.85400003 4726828
-0.1392238 -0.18268095 0.84500003 4073006
-0.13728859 -0.18224858 0.84300005 4206127
-0.13536096 -0.18181619 0.84100002 4403509
-0.17132667 -0.17764287 0.82900006 6896466
-0.16933811 -0.17721429 0.82700002 6634058
-0.15427239 -0.17442858 0.81400001 4993070
-0.15985143 -0.18257144 0.85200006 4860461
-0.15822859 -0.18257144 0.85200006 4793901
-0.15660572 -0.18257144 0.85200006 4727594
-0.13312286 -0.17935714 0.83700001 3942456
-0.13152857 -0.17935714 0.83700001 4008754
-0.12962382 -0.17892858 0.83500004 3943213
nan nan nan 3876362
-0.12455334 -0.17691335 0.83300006 3545904
-0.11820668 -0.17691335 0.83300006 3744561
-0.11662001 -0.17691335 0.83300006 3813169
-0.11503334 -0.17691335 0.83300006 3943725
-0.11159144 -0.17648858 0.83100003 3943473
-0.10974382 -0.17606382 0.82900006 4140087
nan nan nan 5123363
-0.42165715 -0.19784762 0.94000006 14070738
nan nan nan 3811599
-0.4542219 -0.19543143 0.93700004 11834526
nan nan nan 5252129
nan nan nan 5520421
-0.55594289 -0.19068573 0.94000006 4467516
-0.55594289 -0.18889524 0.94000006 4205628
-0.55416858 -0.18650763 0.93700004 4140348
nan nan nan 4668964
-0.55298573 -0.18432859 0.93500006 4140091
-0.22567905 -0.17762572 0.90100002 15268997
nan nan nan 5459240
nan nan nan 5453598
nan nan nan 4799527
nan nan nan 4073246
-0.40162 -0.17458001 0.90300006 15064039
nan nan nan 4602912
-0.53646672 -0.17073333 0.91000003 5331550
-0.21372478 -0.16472858 0.88700002 16701339
-0.39761716 -0.16432571 0.89400005 15129576
-0.21203524 -0.16303906 0.88700002 13945975
0.21078859 -0.15425524 0.84800005 12761542
-0.45568287 -0.15868285 0.89100003 9338474
-0.45398575 -0.15868285 0.89100003 9135437
-0.45228857 -0.15868285 0.89100003 9006676
-0.42145717 -0.15921715 0.89400005 10916752
-0.3945038 -0.15797047 0.88700002 15326431
-0.20486666 -0.15636761 0.87800002 16696964
-0.20203714 -0.15381429 0.87300003 13810033
0.2132619 -0.14888096 0.84500003 12169135
-0.39228001 -0.15372001 0.88200003 14930653
-0.42163241 -0.15479811 0.89800006 10526106
-0.3913905 -0.15169525 0.88000005 14864603
-0.52821332 -0.15274666 0.89600003 5069405
-0.38827714 -0.14716287 0.87300003 14930909
-0.38827714 -0.1455 0.87300003 15063261
nan nan nan 15589351
nan nan nan 8088911
-0.43592572 -0.13709906 0.86200005 8157042
-0.43428382 -0.13709906 0.86200005 6972265
nan nan nan 15655402
-0.50699049 -0.13514286 0.86000001 4869717
0.16843334 -0.12807143 0.81500006 5922456
0.20152667 -0.12838572 0.81700003 9738914
0.20879525 -0.12807143 0.81500006 9407887
-0.43592572 -0.13381524 0.86200005 8217205
0.19923618 -0.12636381 0.81400001 9668495
-0.43428382 -0.13217334 0.86200005 7822461
-0.43063429 -0.13156 0.85800004 8220284
-0.37421429 -0.12956667 0.84500003 14931173
-0.37172288 -0.12926 0.84300005 15786487
0.19303429 -0.12481333 0.81400001 9869971
-0.37084094 -0.12735143 0.84100002 15388909
-0.37084094 -0.12574953 0.84100002 15853028
-0.17207143 -0.12335715 0.82500005 14600393
nan nan nan 12755849
nan nan nan 12951643
-0.17008667 -0.12149048 0.82300001 14727333
-0.4100562 -0.11438 0.81700003 9732680
-0.40850002 -0.11438 0.81700003 10061137
-0.35738474 -0.11396001 0.81400001 16184047
nan nan nan 13607810
nan nan nan 11245735
-0.35540766 -0.10516381 0.80600005 14800335
-0.47890955 -0.10478573 0.81500006 4467774
-0.3521162 -0.10005905 0.80200005 14077402
-0.34884 -0.096520007 0.79800004 16252648
-0.34840289 -0.094880961 0.79700005 16121086
-0.12588859 -0.089079052 0.77300006 13680520
nan nan nan 15985136
-0.34097144 -0.086914286 0.78000003 15786468
-0.33948573 -0.086914286 0.78000003 16313326
-0.41185337 -0.085647628 0.78200006 5597015
-0.3390505 -0.083835244 0.77900004 15986928
nan nan nan 3952468
-0.33818001 -0.082139999 0.77700001 15986158
-0.33747429 -0.077200003 0.77200001 15457761
-0.40711334 -0.074355245 0.77300006 5334645
-0.40564099 -0.074355245 0.77300006 7106426
-0.3496905 -0.074355245 0.77300006 12487894
-0.34911907 -0.074547619 0.77500004 11228868
-0.34854001 -0.07474 0.77700001 11233714
-0.34705999 -0.07474 0.77700001 11238852
-0.057702858 -0.070525713 0.74800003 13408891
nan nan nan 7300728
-0.041356195 -0.067992389 0.73600006 10456646
nan nan nan 5401467
-0.35001999 -0.070299998 0.77700001 15057581
0.3311857 -0.062139999 0.71700001 6052704
0.33255145 -0.062139999 0.71700001 5592158
-0.00068476191 -0.056835238 0.71900004 7100244
-0.39378574 -0.056052383 0.74500006 9852023
-0.39057431 -0.056202862 0.74700004 9334660
nan nan nan 3551540
-0.018282857 -0.050785713 0.71100003 14010835
nan nan nan 2894899
-0.023566667 -0.047806669 0.70700002 14339288
-0.32111815 -0.044695243 0.72200006 12101983
-0.31885716 -0.043200001 0.72000003 9934250
-0.30925715 -0.043200001 0.72000003 15066608
-0.38360095 -0.042467616 0.73100001 8088350
-0.37907144 -0.042119049 0.72500002 7104072
-0.31348002 -0.041480005 0.71400005 13489337
