# .PCD v0.7 - Point Cloud Data file format
VERSION 0.7
FIELDS x y z rgba
SIZE 4 4 4 4
TYPE F F F U
COUNT 1 1 1 1
WIDTH 1123
HEIGHT 1
VIEWPOINT 0 0 0 1 0 0 0
POINTS 1123
DATA ascii
0.32370001 -0.13730572 0.74700004 4737359
0.3242524 -0.13693811 0.74500006 5130580
0.32479715 -0.13657048 0.74300003 5523026
0.32621238 -0.13657048 0.74300003 5325648
0.32762763 -0.13657048 0.74300003 5129034
0.32904288 -0.13657048 0.74300003 4997444
0.33134764 -0.13693811 0.74500006 4930117
0.33276668 -0.13693811 0.74500006 4468806
0.33418572 -0.13693811 0.74500006 4073792
0.33560479 -0.13693811 0.74500006 3680314
0.33611906 -0.13657048 0.74300003 3286838
0.33753428 -0.13657048 0.74300003 3024179
0.33986193 -0.13693811 0.74500006 2761778
0.34128097 -0.13693811 0.74500006 2828082
0.3427 -0.13693811 0.74500006 2828082
0.34319526 -0.13657048 0.74300003 2762546
0.34553811 -0.13693811 0.74500006 2697268
0.34695715 -0.13693811 0.74500006 2696759
0.34837621 -0.13693811 0.74500006 2696502
0.34979525 -0.13693811 0.74500006 2762038
0.35121432 -0.13693811 0.74500006 2827574
0.35168669 -0.13657048 0.74300003 2762295
0.35310191 -0.13657048 0.74300003 2697012
-0.34340289 -0.14352286 0.78900003 8285349
-0.34190002 -0.14352286 0.78900003 8022959
-0.34039715 -0.14352286 0.78900003 7760046
-0.33889431 -0.14352286 0.78900003 7890606
-0.33525336 -0.14261334 0.78400004 8021179
-0.33290857 -0.14224954 0.78200006 7496649
-0.33141905 -0.14224954 0.78200006 7036875
-0.32992953 -0.14224954 0.78200006 7494861
-0.32844001 -0.14224954 0.78200006 8022219
-0.3261143 -0.14188573 0.78000003 8025290
-0.32462859 -0.14188573 0.78000003 8025804
-0.32314286 -0.14188573 0.78000003 8222927
-0.32165715 -0.14188573 0.78000003 8421075
-0.32099241 -0.14224954 0.78200006 8684759
-0.31950289 -0.14224954 0.78200006 8949464
-0.31801337 -0.14224954 0.78200006 9148633
-0.31652385 -0.14224954 0.78200006 9346011
-0.31503433 -0.14224954 0.78200006 9608925
-0.31354478 -0.14224954 0.78200006 9937380
-0.31125715 -0.14188573 0.78000003 10069228
-0.30977145 -0.14188573 0.78000003 10264555
-0.30828571 -0.14188573 0.78000003 10394347
-0.30680001 -0.14188573 0.78000003 10527470
-0.3053143 -0.14188573 0.78000003 10595314
-0.30343908 -0.14170381 0.77900004 10660338
-0.30195525 -0.14170381 0.77900004 10922226
-0.30047145 -0.14170381 0.77900004 11185397
-0.29937145 -0.14188573 0.78000003 11186424
-0.29788572 -0.14188573 0.78000003 11187447
-0.29602 -0.14170381 0.77900004 11450870
-0.29491428 -0.14188573 0.78000003 11713783
-0.29342857 -0.14188573 0.78000003 11780087
-0.29194286 -0.14188573 0.78000003 11913209
-0.29120192 -0.14224954 0.78200006 12636155
-0.28897142 -0.14188573 0.78000003 13359099
-0.28748572 -0.14188573 0.78000003 13885435
-0.28600001 -0.14188573 0.78000003 14477561
-0.28524381 -0.14224954 0.78200006 15200760
-0.28375429 -0.14224954 0.78200006 15988473
-0.28226477 -0.14224954 0.78200006 16120825
-0.28077525 -0.14224954 0.78200006 16252154
-0.27821431 -0.14170381 0.77900004 16383740
-0.27673048 -0.14170381 0.77900004 16580349
-0.27524668 -0.14170381 0.77900004 16645886
-0.27376288 -0.14170381 0.77900004 16711422
-0.27227905 -0.14170381 0.77900004 16711422
-0.27079526 -0.14170381 0.77900004 16711422
-0.26931143 -0.14170381 0.77900004 16711422
-0.26782763 -0.14170381 0.77900004 16711422
-0.26668572 -0.14188573 0.78000003 16711422
-0.26520002 -0.14188573 0.78000003 16711422
-0.26337621 -0.14170381 0.77900004 16711422
-0.26189241 -0.14170381 0.77900004 16711422
-0.26040858 -0.14170381 0.77900004 16711422
-0.25892475 -0.14170381 0.77900004 16711422
-0.25777143 -0.14188573 0.78000003 16711422
-0.25595716 -0.14170381 0.77900004 16711422
-0.25479999 -0.14188573 0.78000003 16711422
-0.25396383 -0.14224954 0.78200006 16711422
-0.25247431 -0.14224954 0.78200006 16711422
-0.25098479 -0.14224954 0.78200006 16711422
-0.24949527 -0.14224954 0.78200006 16711422
-0.24737145 -0.14188573 0.78000003 16711422
-0.24588573 -0.14188573 0.78000003 16711422
-0.24408668 -0.14170381 0.77900004 16711422
-0.24198 -0.14134 0.77700001 16711422
-0.24111906 -0.14170381 0.77900004 16711422
-0.23902 -0.14134 0.77700001 16711422
-0.23815145 -0.14170381 0.77900004 16711422
-0.23666762 -0.14170381 0.77900004 16711422
-0.23548572 -0.14188573 0.78000003 16711422
-0.23400001 -0.14188573 0.78000003 16711422
-0.23251429 -0.14188573 0.78000003 16711422
-0.2307324 -0.14170381 0.77900004 16711422
-0.22924858 -0.14170381 0.77900004 16711422
-0.22776477 -0.14170381 0.77900004 16711422
-0.22628097 -0.14170381 0.77900004 16711422
-0.22421999 -0.14134 0.77700001 16711422
-0.22331335 -0.14170381 0.77900004 16711422
-0.22126 -0.14134 0.77700001 16711422
-0.21978 -0.14134 0.77700001 16711422
-0.21886191 -0.14170381 0.77900004 16711422
-0.21737809 -0.14170381 0.77900004 16711422
-0.2158943 -0.14170381 0.77900004 16711422
-0.21468572 -0.14188573 0.78000003 16711422
-0.21292667 -0.14170381 0.77900004 16711422
-0.21144287 -0.14170381 0.77900004 16711422
-0.20995906 -0.14170381 0.77900004 16711422
-0.20794 -0.14134 0.77700001 16711422
-0.20646 -0.14134 0.77700001 16711422
-0.20550762 -0.14170381 0.77900004 16711422
-0.20402381 -0.14170381 0.77900004 16711422
-0.20280001 -0.14188573 0.78000003 16711422
-0.20131429 -0.14188573 0.78000003 16711422
-0.19982858 -0.14188573 0.78000003 16711422
-0.19834286 -0.14188573 0.78000003 16711422
-0.19685715 -0.14188573 0.78000003 16711422
-0.19512096 -0.14170381 0.77900004 16711422
-0.19363716 -0.14170381 0.77900004 16711422
-0.19165999 -0.14134 0.77700001 16645886
-0.19017999 -0.14134 0.77700001 16645886
-0.1882143 -0.14097619 0.77500004 16580094
-0.1867381 -0.14097619 0.77500004 16580093
-0.18478382 -0.14061238 0.77300006 16514556
-0.18331145 -0.14061238 0.77300006 16449020
-0.18183906 -0.14061238 0.77300006 16383228
-0.18036668 -0.14061238 0.77300006 16317692
-0.1788943 -0.14061238 0.77300006 16251900
-0.17742191 -0.14061238 0.77300006 16252155
-0.17594953 -0.14061238 0.77300006 16252411
-0.17492858 -0.14097619 0.77500004 16251385
-0.17345239 -0.14097619 0.77500004 15858680
-0.17242 -0.14134 0.77700001 15462901
-0.17094 -0.14134 0.77700001 15002354
-0.16946 -0.14134 0.77700001 14543346
-0.16798 -0.14134 0.77700001 13821682
-0.1665 -0.14134 0.77700001 13163249
-0.16501999 -0.14134 0.77700001 12898032
-0.16311905 -0.14097619 0.77500004 12634351
-0.16164286 -0.14097619 0.77500004 12501999
-0.16016667 -0.14097619 0.77500004 12372464
-0.15869048 -0.14097619 0.77500004 12831473
-0.1572143 -0.14097619 0.77500004 13358578
-0.1553362 -0.14061238 0.77300006 13818867
-0.15386382 -0.14061238 0.77300006 14344695
-0.15239145 -0.14061238 0.77300006 14546684
-0.15091905 -0.14061238 0.77300006 14741756
-0.14925334 -0.14043047 0.77200001 12774140
-0.14778285 -0.14043047 0.77200001 10856421
-0.14631239 -0.14043047 0.77200001 8217805
-0.14484191 -0.14043047 0.77200001 5583809
-0.14337143 -0.14043047 0.77200001 5964470
-0.14190096 -0.14043047 0.77200001 6439612
-0.14043047 -0.14043047 0.77200001 9929410
-0.13914001 -0.14061238 0.77300006 13416927
-0.13748953 -0.14043047 0.77200001 14807291
-0.13601905 -0.14043047 0.77200001 16185851
-0.13454857 -0.14043047 0.77200001 15990523
-0.1330781 -0.14043047 0.77200001 15858169
-0.13177809 -0.14061238 0.77300006 15659512
-0.13013715 -0.14043047 0.77200001 15463415
-0.12866667 -0.14043047 0.77200001 15660790
-0.12686667 -0.14006667 0.77000004 15923191
-0.12540001 -0.14006667 0.77000004 15923449
-0.12425524 -0.14043047 0.77200001 15988729
-0.12246668 -0.14006667 0.77000004 15988473
-0.121 -0.14006667 0.77000004 15988729
-0.11922286 -0.13970286 0.76800001 16120057
-0.11837333 -0.14043047 0.77200001 16251642
-0.11660001 -0.14006667 0.77000004 16252410
-0.11513334 -0.14006667 0.77000004 16317946
-0.11366667 -0.14006667 0.77000004 16449019
-0.11220001 -0.14006667 0.77000004 16580091
-0.11073334 -0.14006667 0.77000004 16514812
-0.10926667 -0.14006667 0.77000004 16449276
-0.1078 -0.14006667 0.77000004 16514812
-0.10633334 -0.14006667 0.77000004 16580348
-0.10486668 -0.14006667 0.77000004 16580348
-0.10340001 -0.14006667 0.77000004 16580344
-0.10219809 -0.14043047 0.77200001 16580340
-0.10072762 -0.14043047 0.77200001 16578537
-0.099000007 -0.14006667 0.77000004 15790558
-0.097533338 -0.14006667 0.77000004 15063512
-0.096066669 -0.14006667 0.77000004 14009042
-0.09484572 -0.14043047 0.77200001 13017797
-0.093375236 -0.14043047 0.77200001 11305912
-0.091904759 -0.14043047 0.77200001 9661364
-0.090551436 -0.14061238 0.77300006 7820208
-0.089079052 -0.14061238 0.77300006 5977260
-0.087833337 -0.14097619 0.77500004 5510823
-0.086357147 -0.14097619 0.77500004 5070507
-0.085100003 -0.14134 0.77700001 4408238
-0.083620004 -0.14134 0.77700001 3817398
-0.082139999 -0.14134 0.77700001 4406206
-0.08066 -0.14134 0.77700001 5000646
-0.079180002 -0.14134 0.77700001 5398734
-0.077699997 -0.14134 0.77700001 5862609
-0.072492383 -0.13442762 0.73900002 7113171
-0.07108476 -0.13442762 0.73900002 8429026
-0.069677144 -0.13442762 0.73900002 9220593
-0.068269521 -0.13442762 0.73900002 10011893
-0.066861905 -0.13442762 0.73900002 11327482
-0.065454289 -0.13442762 0.73900002 12708348
-0.064046666 -0.13442762 0.73900002 13892862
-0.062723808 -0.13460952 0.74000001 15072766
-0.061314281 -0.13460952 0.74000001 15597310
-0.059904762 -0.13460952 0.74000001 16187133
-0.058495238 -0.13460952 0.74000001 16252668
-0.057008572 -0.13442762 0.73900002 16383740
-0.055600952 -0.13442762 0.73900002 16449277
-0.054193333 -0.13442762 0.73900002 16514812
-0.052642863 -0.13406383 0.73700005 16514812
-0.051378097 -0.13442762 0.73900002 16514812
-0.049970478 -0.13442762 0.73900002 16449276
-0.048562858 -0.13442762 0.73900002 16383740
-0.047155239 -0.13442762 0.73900002 16449277
-0.045747619 -0.13442762 0.73900002 16580349
-0.044399999 -0.13460952 0.74000001 16645886
-0.042990476 -0.13460952 0.74000001 16711409
-0.041580953 -0.13460952 0.74000001 16318181
-0.040117145 -0.13442762 0.73900002 15987928
-0.038709525 -0.13442762 0.73900002 15264716
-0.037301905 -0.13442762 0.73900002 14539456
-0.03589429 -0.13442762 0.73900002 13159093
-0.03448667 -0.13442762 0.73900002 11840941
-0.03307905 -0.13442762 0.73900002 10129830
-0.031671431 -0.13442762 0.73900002 8406664
-0.030263809 -0.13442762 0.73900002 8061290
-0.028856192 -0.13442762 0.73900002 7746191
-0.027448572 -0.13442762 0.73900002 7693491
-0.026040953 -0.13442762 0.73900002 7620780
-0.024566669 -0.13406383 0.73700005 6630565
-0.023162859 -0.13406383 0.73700005 5707685
-0.02175905 -0.13406383 0.73700005 5309093
-0.02035524 -0.13406383 0.73700005 4982178
-0.018951431 -0.13406383 0.73700005 5179807
-0.01752381 -0.13388193 0.73600006 5388961
-0.016078096 -0.1335181 0.73400003 6712228
-0.01468 -0.1335181 0.73400003 8092582
-0.013245715 -0.1331543 0.73200005 8158121
-0.011835238 -0.13297237 0.73100001 8223656
-0.010442858 -0.13297237 0.73100001 8289191
-0.0090628574 -0.1331543 0.73200005 8354727
-0.0076685725 -0.1331543 0.73200005 8354983
-0.0062742857 -0.1331543 0.73200005 8354725
-0.0048800004 -0.1331543 0.73200005 8288931
-0.003495238 -0.1335181 0.73400003 8223395
-0.0020914287 -0.1331543 0.73200005 8157860
-0.00069904764 -0.1335181 0.73400003 8092323
0.00069904764 -0.1335181 0.73400003 8092578
0.0020971429 -0.1335181 0.73400003 8092577
0.003495238 -0.1335181 0.73400003 8092832
0.0048933332 -0.1335181 0.73400003 8158113
0.006291429 -0.1335181 0.73400003 8157858
0.0077104769 -0.13388193 0.73600006 8157857
0.0090876194 -0.1335181 0.73400003 8157857
0.010485714 -0.1335181 0.73400003 8157600
0.01188381 -0.1335181 0.73400003 8157600
0.013281905 -0.1335181 0.73400003 8223135
0.014640001 -0.1331543 0.73200005 8157854
0.016034286 -0.1331543 0.73200005 8157597
0.017428573 -0.1331543 0.73200005 8157596
0.018797142 -0.13297237 0.73100001 8222876
0.020217143 -0.1331543 0.73200005 8157341
0.02161143 -0.1331543 0.73200005 8157341
0.023005717 -0.1331543 0.73200005 8288413
0.024366667 -0.13297237 0.73100001 8485020
0.025759049 -0.13297237 0.73100001 8419227
0.027151428 -0.13297237 0.73100001 8353947
0.028543809 -0.13297237 0.73100001 8288667
0.029936191 -0.13297237 0.73100001 8223131
0.03132857 -0.13297237 0.73100001 8223132
0.03272095 -0.13297237 0.73100001 8288412
0.034113333 -0.13297237 0.73100001 8288412
0.035505716 -0.13297237 0.73100001 8288157
0.036898095 -0.13297237 0.73100001 8288415
0.038290478 -0.13297237 0.73100001 8288415
0.039574288 -0.13260858 0.72900003 8223135
0.04096286 -0.13260858 0.72900003 8223391
0.042351428 -0.13260858 0.72900003 8289182
0.043740001 -0.13260858 0.72900003 8354461
0.045128573 -0.13260858 0.72900003 8157340
0.046453338 -0.13242666 0.72800004 8023717
0.047840003 -0.13242666 0.72800004 9202605
0.049226668 -0.13242666 0.72800004 10397121
0.050821904 -0.13297237 0.73100001 11845588
0.05228572 -0.1331543 0.73200005 13351115
0.053826667 -0.1335181 0.73400003 13480386
0.055224765 -0.1335181 0.73400003 13612220
0.056777146 -0.13388193 0.73600006 13023414
0.058258101 -0.13406383 0.73700005 12488855
0.059580956 -0.13388193 0.73600006 11687032
0.060817145 -0.1335181 0.73400003 10975125
0.062384766 -0.13388193 0.73600006 12294833
0.063613333 -0.1335181 0.73400003 13613501
0.065011427 -0.1335181 0.73400003 14670025
0.066409528 -0.1335181 0.73400003 15720405
0.067807622 -0.1335181 0.73400003 15722465
0.069205716 -0.1335181 0.73400003 15787753
0.07060381 -0.1335181 0.73400003 15787505
0.072001912 -0.1335181 0.73400003 15787507
0.073600002 -0.13388193 0.73600006 15656437
0.074594289 -0.1331543 0.73200005 15589865
0.075988576 -0.1331543 0.73200005 14736605
0.077382863 -0.1331543 0.73200005 13942987
0.078777142 -0.1331543 0.73200005 12758456
0.080061905 -0.13297237 0.73100001 11633575
0.081565715 -0.1331543 0.73200005 11374487
0.083186664 -0.1335181 0.73400003 11177902
0.084584765 -0.1335181 0.73400003 12297158
0.086334296 -0.13406383 0.73700005 13419478
0.087738104 -0.13406383 0.73700005 14208486
0.089141913 -0.13406383 0.73700005 15063531
0.090545721 -0.13406383 0.73700005 15327985
0.09194953 -0.13406383 0.73700005 15655921
0.093226671 -0.13388193 0.73600006 15656177
0.094757147 -0.13406383 0.73700005 15721201
0.096030481 -0.13388193 0.73600006 15720946
0.09743239 -0.13388193 0.73600006 15720945
0.09856572 -0.1335181 0.73400003 15720944
0.1002362 -0.13388193 0.73600006 15786738
0.1016381 -0.13388193 0.73600006 15852788
0.10304001 -0.13388193 0.73600006 15918321
0.1041581 -0.1335181 0.73400003 15721454
0.1055562 -0.1335181 0.73400003 15590896
0.10666286 -0.1331543 0.73200005 15722739
0.10805715 -0.1331543 0.73200005 15919347
0.10945144 -0.1331543 0.73200005 15854067
0.11084572 -0.1331543 0.73200005 15854323
0.11208667 -0.13297237 0.73100001 15920115
0.11316857 -0.13260858 0.72900003 16050931
0.11455715 -0.13260858 0.72900003 16050676
0.11578667 -0.13242666 0.72800004 16116468
0.11717334 -0.13242666 0.72800004 16116980
0.11823429 -0.13206285 0.72600001 16115955
0.11945238 -0.13188095 0.72500002 16048883
0.12083334 -0.13188095 0.72500002 16049139
0.12187715 -0.13151714 0.72300005 16051700
0.12325429 -0.13151714 0.72300005 16116980
0.1249762 -0.13188095 0.72500002 16116981
0.12635714 -0.13188095 0.72500002 16116981
0.13443333 -0.13879333 0.76300001 16116981
0.13553049 -0.13842954 0.76100004 16116981
0.13698001 -0.13842954 0.76100004 16116982
0.13842954 -0.13842954 0.76100004 16116725
0.13987905 -0.13842954 0.76100004 16116725
0.14114286 -0.13824762 0.76000005 16116724
0.14259049 -0.13824762 0.76000005 16116979
0.14365906 -0.13788381 0.75800002 16181235
0.14510286 -0.13788381 0.75800002 16115699
0.14616001 -0.13752002 0.75600004 16050674
0.14760001 -0.13752002 0.75600004 15985906
0.14904 -0.13752002 0.75600004 15918832
0.15048002 -0.13752002 0.75600004 15656174
0.15192001 -0.13752002 0.75600004 15457258
0.15315716 -0.13733812 0.75500005 15390951
0.15418571 -0.13697428 0.75300002 15325412
0.15561999 -0.13697428 0.75300002 15129058
0.15705428 -0.13697428 0.75300002 14994656
0.15848857 -0.13697428 0.75300002 14798047
0.15971048 -0.13679238 0.75200003 14666971
0.16114287 -0.13679238 0.75200003 14535895
0.16322382 -0.13733812 0.75500005 14469074
0.16531619 -0.13788381 0.75800002 14271181
0.16632001 -0.13752002 0.75600004 14139340
0.16776001 -0.13752002 0.75600004 13942219
0.1689762 -0.13733812 0.75500005 13811143
0.16996285 -0.13697428 0.75300002 13679555
0.17139715 -0.13697428 0.75300002 13611202
0.17283143 -0.13697428 0.75300002 13414338
0.1740343 -0.13679238 0.75200003 13283007
0.17546667 -0.13679238 0.75200003 13152445
0.17689905 -0.13679238 0.75200003 13020606
0.17833143 -0.13679238 0.75200003 12954303
0.18000287 -0.13697428 0.75300002 12889534
0.18143715 -0.13697428 0.75300002 12890556
0.18335715 -0.13733812 0.75500005 12955068
0.18479526 -0.13733812 0.75500005 12954043
0.18623334 -0.13733812 0.75500005 12954298
0.18767144 -0.13733812 0.75500005 12956089
0.18910953 -0.13733812 0.75500005 13020088
0.19054763 -0.13733812 0.75500005 13018552
0.19198573 -0.13733812 0.75500005 13084602
0.19342382 -0.13733812 0.75500005 12954300
0.19486192 -0.13733812 0.75500005 12890047
0.19630001 -0.13733812 0.75500005 12957122
0.19721429 -0.13697428 0.75300002 13022661
0.19864857 -0.13697428 0.75300002 13088455
0.19981715 -0.13679238 0.75200003 13220037
0.20124954 -0.13679238 0.75200003 13286084
0.20268191 -0.13679238 0.75200003 13417155
0.20411429 -0.13679238 0.75200003 13482946
0.20554666 -0.13679238 0.75200003 13549255
0.20725429 -0.13697428 0.75300002 13287884
0.20868857 -0.13697428 0.75300002 13021853
0.21068096 -0.13733812 0.75500005 6553966
0.21211907 -0.13733812 0.75500005 196980
0.21299143 -0.13697428 0.75300002 5314682
0.21414095 -0.13679238 0.75200003 10521247
0.21500002 -0.13642858 0.75000006 12242885
0.21642858 -0.13642858 0.75000006 13942207
0.21785715 -0.13642858 0.75000006 13416890
0.21928573 -0.13642858 0.75000006 12950433
0.2207143 -0.13642858 0.75000006 8545159
0.22214288 -0.13642858 0.75000006 4141685
0.22357143 -0.13642858 0.75000006 4653410
0.22500001 -0.13642858 0.75000006 5260666
0.23606287 -0.13788381 0.75800002 11047838
0.23813336 -0.13824762 0.76000005 10849951
0.23958096 -0.13824762 0.76000005 10652830
0.24039428 -0.13788381 0.75800002 10521501
0.2418381 -0.13788381 0.75800002 10390172
0.2432819 -0.13788381 0.75800002 10258843
0.24408002 -0.13752002 0.75600004 10193048
0.24552001 -0.13752002 0.75600004 10061973
0.24565333 -0.13679238 0.75200003 9930387
0.24708572 -0.13679238 0.75200003 9864337
0.24851809 -0.13679238 0.75200003 9798287
0.24928574 -0.13642858 0.75000006 9666702
0.25138289 -0.13679238 0.75200003 9601164
0.25214288 -0.13642858 0.75000006 9535626
0.25424764 -0.13679238 0.75200003 9469579
0.25568002 -0.13679238 0.75200003 9337995
0.25711238 -0.13679238 0.75200003 9272716
0.25854477 -0.13679238 0.75200003 9207181
0.25928575 -0.13642858 0.75000006 9207177
0.26071432 -0.13642858 0.75000006 9403781
0.2621429 -0.13642858 0.75000006 9601665
0.2642743 -0.13679238 0.75200003 8220541
0.26570666 -0.13679238 0.75200003 6834523
0.26713905 -0.13679238 0.75200003 4328506
0.26857144 -0.13679238 0.75200003 1848164
0.2700038 -0.13679238 0.75200003 5596559
0.27179712 -0.13697428 0.75300002 9339537
0.27323142 -0.13697428 0.75300002 9469587
0.27357146 -0.13642858 0.75000006 9600146
0.27500004 -0.13642858 0.75000006 9337746
0.27532288 -0.13588285 0.74700004 9075599
0.27674571 -0.13588285 0.74700004 8879245
0.27742383 -0.13551906 0.74500006 8747659
0.27959144 -0.13588285 0.74700004 8484234
0.28026193 -0.13551906 0.74500006 8286600
0.28243715 -0.13588285 0.74700004 8153223
0.28310004 -0.13551906 0.74500006 8088196
0.28451908 -0.13551906 0.74500006 8088706
0.28593811 -0.13551906 0.74500006 8155273
0.28735718 -0.13551906 0.74500006 8221585
0.28877622 -0.13551906 0.74500006 8287111
0.29097429 -0.13588285 0.74700004 7428733
0.29161432 -0.13551906 0.74500006 6638493
0.29303336 -0.13551906 0.74500006 9343933
0.2944524 -0.13551906 0.74500006 12042926
0.29706287 -0.13606477 0.74800003 10593439
0.31064475 -0.13515525 0.74300003 5986397
0.31206003 -0.13515525 0.74300003 5854553
0.31431907 -0.13551906 0.74500006 5787987
0.31658572 -0.13588285 0.74700004 5720398
0.3180086 -0.13588285 0.74700004 5718849
0.31943145 -0.13588285 0.74700004 3417909
0.31999525 -0.13551906 0.74500006 1189439
0.32141429 -0.13551906 0.74500006 2500169
0.32196668 -0.13515525 0.74300003 3818064
0.32338193 -0.13515525 0.74300003 4738392
0.3234857 -0.13460952 0.74000001 5719892
0.32489526 -0.13460952 0.74000001 5391185
0.32630476 -0.13460952 0.74000001 5129036
0.32860002 -0.13497335 0.74200004 5063239
0.33001333 -0.13497335 0.74200004 5061700
0.33187333 -0.13515525 0.74300003 4666688
0.33328858 -0.13515525 0.74300003 4336700
0.33470383 -0.13515525 0.74300003 3875896
0.33611906 -0.13515525 0.74300003 3416374
0.33753428 -0.13515525 0.74300003 3153716
0.33894953 -0.13515525 0.74300003 2892083
0.34036478 -0.13515525 0.74300003 2959154
0.34178001 -0.13515525 0.74300003 3024690
0.34273335 -0.13497335 0.74200004 2828082
0.34461048 -0.13515525 0.74300003 2697011
0.34602574 -0.13515525 0.74300003 2631220
0.34744096 -0.13515525 0.74300003 2630965
0.3483867 -0.13497335 0.74200004 2761782
0.34885716 -0.13460952 0.74000001 2892854
0.35026667 -0.13460952 0.74000001 2761271
0.3516762 -0.13460952 0.74000001 2696241
-0.34190002 -0.14202 0.78900003 8548256
-0.34039715 -0.14202 0.78900003 8417946
-0.33889431 -0.14202 0.78900003 8548500
-0.33439812 -0.14076002 0.78200006 8679065
-0.33205715 -0.14040001 0.78000003 8350111
-0.33057144 -0.14040001 0.78000003 8086685
-0.32866383 -0.14022 0.77900004 8349852
-0.32718003 -0.14022 0.77900004 8613020
-0.3256962 -0.14022 0.77900004 8613789
-0.32421237 -0.14022 0.77900004 8614562
-0.32272857 -0.14022 0.77900004 8681383
-0.32124478 -0.14022 0.77900004 8809900
-0.31976098 -0.14022 0.77900004 8679345
-0.31868574 -0.14040001 0.78000003 8614324
-0.31679335 -0.14022 0.77900004 8878264
-0.31571427 -0.14040001 0.78000003 9142209
-0.31422856 -0.14040001 0.78000003 9011402
-0.31274286 -0.14040001 0.78000003 8815060
-0.31085813 -0.14022 0.77900004 9078495
-0.3093743 -0.14022 0.77900004 9342175
-0.30789047 -0.14022 0.77900004 9344224
-0.30640668 -0.14022 0.77900004 9412069
-0.30492285 -0.14022 0.77900004 9476331
-0.30265999 -0.13985999 0.77700001 9540588
-0.30118001 -0.13985999 0.77700001 9673966
-0.29969999 -0.13985999 0.77700001 9873141
-0.29898763 -0.14022 0.77900004 9936380
-0.29750383 -0.14022 0.77900004 9999866
-0.29602 -0.14022 0.77900004 10394361
-0.2945362 -0.14022 0.77900004 10789112
-0.29305241 -0.14022 0.77900004 10920952
-0.29156858 -0.14022 0.77900004 11052792
-0.29008478 -0.14022 0.77900004 11514104
-0.28860095 -0.14022 0.77900004 12040952
-0.28748572 -0.14040001 0.78000003 12436984
-0.28563333 -0.14022 0.77900004 12898805
-0.28414956 -0.14022 0.77900004 13491187
-0.28266573 -0.14022 0.77900004 14083828
-0.28118193 -0.14022 0.77900004 14084341
-0.2796981 -0.14022 0.77900004 14085111
-0.27821431 -0.14022 0.77900004 14545402
-0.27602002 -0.13985999 0.77700001 14940156
-0.27454001 -0.13985999 0.77700001 15071998
-0.27306002 -0.13985999 0.77700001 15269630
-0.27157998 -0.13985999 0.77700001 15597310
-0.2701 -0.13985999 0.77700001 15990526
-0.26861998 -0.13985999 0.77700001 16121598
-0.26714 -0.13985999 0.77700001 16187134
-0.2663438 -0.14022 0.77900004 16318206
-0.26486003 -0.14022 0.77900004 16449278
-0.26269999 -0.13985999 0.77700001 16449278
-0.26122001 -0.13985999 0.77700001 16449278
-0.25974 -0.13985999 0.77700001 16514814
-0.25826001 -0.13985999 0.77700001 16645886
-0.25678003 -0.13985999 0.77700001 16645886
-0.25529999 -0.13985999 0.77700001 16711422
-0.25251335 -0.13914001 0.77300006 16711422
-0.25169051 -0.13950001 0.77500004 16711422
-0.25021428 -0.13950001 0.77500004 16711422
-0.24873811 -0.13950001 0.77500004 16711422
-0.24790001 -0.13985999 0.77700001 16711422
-0.24578573 -0.13950001 0.77500004 16711422
-0.24430954 -0.13950001 0.77500004 16711422
-0.24283333 -0.13950001 0.77500004 16711422
-0.24135716 -0.13950001 0.77500004 16711422
-0.23988096 -0.13950001 0.77500004 16711422
-0.23840477 -0.13950001 0.77500004 16711422
-0.23692858 -0.13950001 0.77500004 16711422
-0.23484477 -0.13914001 0.77300006 16711422
-0.23337239 -0.13914001 0.77300006 16711422
-0.23370001 -0.14022 0.77900004 16711422
-0.23221619 -0.14022 0.77900004 16711422
-0.23014 -0.13985999 0.77700001 16711422
-0.22866 -0.13985999 0.77700001 16711422
-0.22718 -0.13985999 0.77700001 16711422
-0.22569999 -0.13985999 0.77700001 16711422
-0.22421999 -0.13985999 0.77700001 16711422
-0.22273999 -0.13985999 0.77700001 16711422
-0.22069047 -0.13950001 0.77500004 16711422
-0.21921429 -0.13950001 0.77500004 16711422
-0.2183 -0.13985999 0.77700001 16711422
-0.21681999 -0.13985999 0.77700001 16711422
-0.21423145 -0.13914001 0.77300006 16711422
-0.21275906 -0.13914001 0.77300006 16711422
-0.21128668 -0.13914001 0.77300006 16711422
-0.20981431 -0.13914001 0.77300006 16711422
-0.20834193 -0.13914001 0.77300006 16711422
-0.20686953 -0.13914001 0.77300006 16711422
-0.20592858 -0.13950001 0.77500004 16711422
-0.20498 -0.13985999 0.77700001 16711422
-0.2035 -0.13985999 0.77700001 16711422
-0.20254001 -0.14022 0.77900004 16711422
-0.2010562 -0.14022 0.77900004 16711422
-0.19957238 -0.14022 0.77900004 16711422
-0.19808859 -0.14022 0.77900004 16711422
-0.19660477 -0.14022 0.77900004 16711422
-0.19512096 -0.14022 0.77900004 16711422
-0.19314 -0.13985999 0.77700001 16711422
-0.19165999 -0.13985999 0.77700001 16645886
-0.18969047 -0.13950001 0.77500004 16645886
-0.18772858 -0.13914001 0.77300006 16645630
-0.1862562 -0.13914001 0.77300006 16580093
-0.18478382 -0.13914001 0.77300006 16514556
-0.18331145 -0.13914001 0.77300006 16514556
-0.18160382 -0.13896 0.77200001 16383229
-0.18013333 -0.13896 0.77200001 16317692
-0.17866287 -0.13896 0.77200001 16317692
-0.17742191 -0.13914001 0.77300006 16317947
-0.17572191 -0.13896 0.77200001 16120826
-0.17447716 -0.13914001 0.77300006 15989240
-0.17300478 -0.13914001 0.77300006 15398902
-0.17153239 -0.13914001 0.77300006 14805748
-0.17050001 -0.13950001 0.77500004 14478066
-0.16902381 -0.13950001 0.77500004 14084850
-0.16754761 -0.13950001 0.77500004 13490162
-0.16607144 -0.13950001 0.77500004 12896496
-0.16459525 -0.13950001 0.77500004 12764654
-0.1626981 -0.13914001 0.77300006 12567534
-0.16122574 -0.13914001 0.77300006 12633326
-0.15975334 -0.13914001 0.77300006 12634095
-0.15828095 -0.13914001 0.77300006 13160689
-0.15660572 -0.13896 0.77200001 13621235
-0.15513523 -0.13896 0.77200001 13491446
-0.15366477 -0.13896 0.77200001 13360122
-0.15219429 -0.13896 0.77200001 12308734
-0.15072381 -0.13896 0.77200001 11323132
-0.14925334 -0.13896 0.77200001 9731835
-0.14778285 -0.13896 0.77200001 8206028
-0.14593334 -0.13860001 0.77000004 7480733
-0.14484191 -0.13896 0.77200001 6755730
-0.14337143 -0.13896 0.77200001 8345224
-0.14190096 -0.13896 0.77200001 10000321
-0.14006667 -0.13860001 0.77000004 12372219
-0.13860001 -0.13860001 0.77000004 14744060
-0.13677713 -0.13824001 0.76800001 15268606
-0.13566668 -0.13860001 0.77000004 15858939
-0.13420001 -0.13860001 0.77000004 15726841
-0.13273335 -0.13860001 0.77000004 15594998
-0.13126667 -0.13860001 0.77000004 15462644
-0.12980001 -0.13860001 0.77000004 15396596
-0.12833333 -0.13860001 0.77000004 15593972
-0.12653714 -0.13824001 0.76800001 15791350
-0.12507428 -0.13824001 0.76800001 15857144
-0.12361144 -0.13824001 0.76800001 15988472
-0.12214857 -0.13824001 0.76800001 15922936
-0.12068571 -0.13824001 0.76800001 15922935
-0.11953334 -0.13860001 0.77000004 15988215
-0.11806668 -0.13860001 0.77000004 16053751
-0.11660001 -0.13860001 0.77000004 16053495
-0.11513334 -0.13860001 0.77000004 16053495
-0.11366667 -0.13860001 0.77000004 16120056
-0.11190857 -0.13824001 0.76800001 16252153
-0.11044572 -0.13824001 0.76800001 16186363
-0.10898285 -0.13824001 0.76800001 16120570
-0.10752 -0.13824001 0.76800001 16120314
-0.10605714 -0.13824001 0.76800001 16120058
-0.10445809 -0.13806 0.76700002 16186107
-0.10313143 -0.13824001 0.76800001 16252156
-0.10166857 -0.13824001 0.76800001 16252414
-0.10020572 -0.13824001 0.76800001 16318206
-0.098742858 -0.13824001 0.76800001 15990526
-0.097279996 -0.13824001 0.76800001 15662846
-0.095817141 -0.13824001 0.76800001 15137790
-0.094599999 -0.13860001 0.77000004 14678264
-0.093133338 -0.13860001 0.77000004 13755123
-0.091904759 -0.13896 0.77200001 12897502
-0.090434283 -0.13896 0.77200001 11776969
-0.089079052 -0.13914001 0.77300006 10656439
-0.087833337 -0.13950001 0.77500004 9929637
-0.086580001 -0.13985999 0.77700001 9268623
-0.085100003 -0.13985999 0.77700001 8342906
-0.083404765 -0.13950001 0.77500004 7351936
-0.082139999 -0.13985999 0.77700001 7155334
-0.076507628 -0.13266002 0.73700005 6958994
-0.075307623 -0.13302 0.73900002 6303391
-0.073899999 -0.13302 0.73900002 5647782
-0.072492383 -0.13302 0.73900002 5783725
-0.07108476 -0.13302 0.73900002 5985481
-0.069677144 -0.13302 0.73900002 6511590
-0.068084769 -0.13266002 0.73700005 7037678
-0.06668096 -0.13266002 0.73700005 7632374
-0.065277152 -0.13266002 0.73700005 8227322
-0.063873336 -0.13266002 0.73700005 9215998
-0.06263905 -0.13302 0.73900002 10204926
-0.061231427 -0.13302 0.73900002 10666750
-0.059823811 -0.13302 0.73900002 11063292
-0.058416191 -0.13302 0.73900002 11590906
-0.057008572 -0.13302 0.73900002 12184315
-0.05545048 -0.13266002 0.73700005 12249596
-0.054046672 -0.13266002 0.73700005 12380667
-0.052642863 -0.13266002 0.73700005 12511738
-0.051239051 -0.13266002 0.73700005 12708602
-0.049835242 -0.13266002 0.73700005 12839930
-0.048431434 -0.13266002 0.73700005 12971515
-0.047027621 -0.13266002 0.73700005 13037820
-0.045623813 -0.13266002 0.73700005 13169917
-0.044220004 -0.13266002 0.73700005 13170942
-0.042816196 -0.13266002 0.73700005 13171966
-0.041412383 -0.13266002 0.73700005 12842494
-0.040008575 -0.13266002 0.73700005 12578558
-0.038604766 -0.13266002 0.73700005 12119550
-0.037200954 -0.13266002 0.73700005 11726334
-0.035797145 -0.13266002 0.73700005 10869758
-0.034393337 -0.13266002 0.73700005 10013175
-0.032989528 -0.13266002 0.73700005 8356080
-0.031585716 -0.13266002 0.73700005 6720697
-0.030181907 -0.13266002 0.73700005 9349507
-0.028778099 -0.13266002 0.73700005 11978432
-0.027374288 -0.13266002 0.73700005 11979006
-0.02593524 -0.13248 0.73600006 12045287
-0.024533335 -0.13248 0.73600006 11385552
-0.023162859 -0.13266002 0.73700005 10660550
-0.021729525 -0.13248 0.73600006 10462652
-0.02032762 -0.13248 0.73600006 10199223
-0.018925715 -0.13248 0.73600006 9738419
-0.01747619 -0.13212 0.73400003 9212077
-0.016078096 -0.13212 0.73400003 8482727
-0.014640001 -0.13176 0.73200005 7764649
-0.013245715 -0.13176 0.73200005 8026795
-0.011835238 -0.13158 0.73100001 8223913
-0.010442858 -0.13158 0.73100001 8289192
-0.0090504764 -0.13158 0.73100001 8354473
-0.0076580956 -0.13158 0.73100001 8289450
-0.0062742857 -0.13176 0.73200005 8289448
-0.0048800004 -0.13176 0.73200005 8223654
-0.0034857146 -0.13176 0.73200005 8223653
-0.0020914287 -0.13176 0.73200005 8158117
-0.00069714291 -0.13176 0.73200005 8158117
0.00069714291 -0.13176 0.73200005 8092581
0.0020914287 -0.13176 0.73200005 8092835
0.0034857146 -0.13176 0.73200005 8092833
0.0048800004 -0.13176 0.73200005 8093090
0.006291429 -0.13212 0.73400003 8158628
0.007689524 -0.13212 0.73400003 8224162
0.0090876194 -0.13212 0.73400003 8157857
0.010485714 -0.13212 0.73400003 8158112
0.01188381 -0.13212 0.73400003 8157856
0.013281905 -0.13212 0.73400003 8222879
0.014640001 -0.13176 0.73200005 8288670
0.016034286 -0.13176 0.73200005 8354461
0.017428573 -0.13176 0.73200005 8288925
0.018797142 -0.13158 0.73100001 8223645
0.020189524 -0.13158 0.73100001 8157853
0.021581903 -0.13158 0.73100001 8092063
0.022974286 -0.13158 0.73100001 8222881
0.024366667 -0.13158 0.73100001 8353951
0.025759049 -0.13158 0.73100001 8353950
0.027151428 -0.13158 0.73100001 8354205
0.028465716 -0.13122 0.72900003 8288413
0.029936191 -0.13158 0.73100001 8287901
0.03132857 -0.13158 0.73100001 8287902
0.03272095 -0.13158 0.73100001 8353694
0.034113333 -0.13158 0.73100001 8353695
0.035408571 -0.13122 0.72900003 8353697
0.036797144 -0.13122 0.72900003 8353699
0.038185716 -0.13122 0.72900003 8353954
0.039574288 -0.13122 0.72900003 8354210
0.040906668 -0.13104001 0.72800004 8354721
0.042293333 -0.13104001 0.72800004 8354720
0.043680001 -0.13104001 0.72800004 8420253
0.04506667 -0.13104001 0.72800004 8157339
0.046453338 -0.13104001 0.72800004 7958442
0.047840003 -0.13104001 0.72800004 9663162
0.049226668 -0.13104001 0.72800004 11383505
0.050682858 -0.13122 0.72900003 12829416
0.052214287 -0.13158 0.73100001 14275555
0.053680003 -0.13176 0.73200005 14276063
0.055224765 -0.13212 0.73400003 14276831
0.056622859 -0.13212 0.73400003 13945055
0.058020953 -0.13212 0.73400003 13678768
0.059419051 -0.13212 0.73400003 13284994
0.060817145 -0.13212 0.73400003 12956845
0.062215243 -0.13212 0.73400003 13682393
0.063440003 -0.13176 0.73200005 14408164
0.064834289 -0.13176 0.73200005 14933488
0.066228576 -0.13176 0.73200005 15459059
0.067622863 -0.13176 0.73200005 15525111
0.069017142 -0.13176 0.73200005 15591926
0.070411436 -0.13176 0.73200005 15525366
0.071805716 -0.13176 0.73200005 15524597
0.07320001 -0.13176 0.73200005 15459060
0.07449238 -0.13158 0.73100001 15459048
0.075884759 -0.13158 0.73100001 14538973
0.077277139 -0.13158 0.73100001 13547465
0.078669526 -0.13158 0.73100001 12425910
0.079842865 -0.13122 0.72900003 11371687
0.081454284 -0.13158 0.73100001 11309208
0.08296001 -0.13176 0.73200005 11243698
0.084354289 -0.13176 0.73200005 12496845
0.08621715 -0.13248 0.73600006 13684187
0.087619051 -0.13248 0.73600006 14406889
0.08902096 -0.13248 0.73600006 15129837
0.090545721 -0.13266002 0.73700005 15391986
0.09182477 -0.13248 0.73600006 15719666
0.092973337 -0.13212 0.73400003 15720178
0.09462858 -0.13248 0.73600006 15720689
0.095769532 -0.13212 0.73400003 15786993
0.097167619 -0.13212 0.73400003 15853297
0.098162852 -0.13158 0.73100001 15853042
0.099555232 -0.13158 0.73100001 15918323
0.1013619 -0.13212 0.73400003 15983860
0.10276 -0.13212 0.73400003 16049648
0.1038743 -0.13176 0.73200005 15918828
0.10526858 -0.13176 0.73200005 15853551
0.10622571 -0.13122 0.72900003 15918579
0.10761429 -0.13122 0.72900003 16049395
0.10900286 -0.13122 0.72900003 15984371
0.11039143 -0.13122 0.72900003 15984883
0.11178 -0.13122 0.72900003 16051188
0.11270286 -0.13068001 0.72600001 16051444
0.11408571 -0.13068001 0.72600001 16117236
0.11546858 -0.13068001 0.72600001 16183028
0.11685143 -0.13068001 0.72600001 16182517
0.11823429 -0.13068001 0.72600001 16182260
0.11945238 -0.1305 0.72500002 16181492
0.12083334 -0.1305 0.72500002 16115444
0.12187715 -0.13014001 0.72300005 16117493
0.12325429 -0.13014001 0.72300005 16182261
0.12463143 -0.13014001 0.72300005 16182774
0.12600857 -0.13014001 0.72300005 16183542
0.12738572 -0.13014001 0.72300005 16118006
0.12876286 -0.13014001 0.72300005 16118006
0.13014001 -0.13014001 0.72300005 16117751
0.13824762 -0.13680001 0.76000005 16117495
0.13969524 -0.13680001 0.76000005 16117495
0.14077142 -0.13644001 0.75800002 16117493
0.14221524 -0.13644001 0.75800002 16116468
0.14365906 -0.13644001 0.75800002 16116212
0.14510286 -0.13644001 0.75800002 16050420
0.14616001 -0.13608 0.75600004 15985395
0.14760001 -0.13608 0.75600004 15919602
0.14884287 -0.13590001 0.75500005 15853808
0.15028097 -0.13590001 0.75500005 15590382
0.15171905 -0.13590001 0.75500005 15392747
0.15315716 -0.13590001 0.75500005 15392232
0.15418571 -0.13553999 0.75300002 15326438
0.15541334 -0.13536 0.75200003 15195108
0.15684572 -0.13536 0.75200003 15060451
0.15827809 -0.13536 0.75200003 14929378
0.15971048 -0.13536 0.75200003 14798556
0.1607143 -0.13500002 0.75000006 14666966
0.16257524 -0.13536 0.75200003 14535892
0.16422573 -0.13553999 0.75300002 14403538
0.16610001 -0.13590001 0.75500005 14271440
0.16709429 -0.13553999 0.75300002 14139854
0.16830476 -0.13536 0.75200003 14008267
0.16973716 -0.13536 0.75200003 13876681
0.17116953 -0.13536 0.75200003 13742025
0.17260191 -0.13536 0.75200003 13610697
0.1740343 -0.13536 0.75200003 13479620
0.17546667 -0.13536 0.75200003 13349056
0.17689905 -0.13536 0.75200003 13218753
0.17833143 -0.13536 0.75200003 13152707
0.18000287 -0.13553999 0.75300002 13086660
0.18143715 -0.13553999 0.75300002 13152709
0.18287143 -0.13553999 0.75300002 13153480
0.18406096 -0.13536 0.75200003 13152459
0.18549334 -0.13536 0.75200003 13151434
0.18692571 -0.13536 0.75200003 13151945
0.18835811 -0.13536 0.75200003 13152452
0.18979049 -0.13536 0.75200003 13151423
0.19122286 -0.13536 0.75200003 13084864
0.19265525 -0.13536 0.75200003 13020610
0.19408762 -0.13536 0.75200003 13022147
0.19577999 -0.13553999 0.75300002 13088452
0.19695239 -0.13536 0.75200003 13220550
0.19838478 -0.13536 0.75200003 13285833
0.19981715 -0.13536 0.75200003 13351111
0.20124954 -0.13536 0.75200003 13547974
0.20214286 -0.13500002 0.75000006 13679558
0.20357144 -0.13500002 0.75000006 13679814
0.20500001 -0.13500002 0.75000006 13680076
0.20697905 -0.13536 0.75200003 13350610
0.20841144 -0.13536 0.75200003 13021330
0.20928572 -0.13500002 0.75000006 6553938
0.2107143 -0.13500002 0.75000006 131452
0.21214287 -0.13500002 0.75000006 5457830
0.21357144 -0.13500002 0.75000006 10857662
0.21442668 -0.13464001 0.74800003 12309463
0.21585144 -0.13464001 0.74800003 13809612
0.2172762 -0.13464001 0.74800003 11444674
0.21928573 -0.13500002 0.75000006 9079692
0.22012572 -0.13464001 0.74800003 6763094
0.22155048 -0.13464001 0.74800003 4456793
0.22297524 -0.13464001 0.74800003 6767709
0.22440001 -0.13464001 0.74800003 9079439
0.22582477 -0.13464001 0.74800003 10524865
0.22694573 -0.13446002 0.74700004 11970480
0.22836858 -0.13446002 0.74700004 11640735
0.23958096 -0.13680001 0.76000005 10851231
0.24039428 -0.13644001 0.75800002 10653597
0.24024285 -0.13553999 0.75300002 10521500
0.24135619 -0.13536 0.75200003 10390427
0.24278858 -0.13536 0.75200003 10259352
0.24422096 -0.13536 0.75200003 10127510
0.24500002 -0.13500002 0.75000006 9995923
0.24577142 -0.13464001 0.74800003 9864848
0.24686572 -0.13446002 0.74700004 9799310
0.24828857 -0.13446002 0.74700004 9733005
0.25004572 -0.13464001 0.74800003 9667211
0.25147048 -0.13464001 0.74800003 9601162
0.25255716 -0.13446002 0.74700004 9534858
0.25398001 -0.13446002 0.74700004 9403786
0.25540286 -0.13446002 0.74700004 9338506
0.25716954 -0.13464001 0.74800003 9272714
0.2585943 -0.13464001 0.74800003 9141896
0.25967145 -0.13446002 0.74700004 9404039
0.2610943 -0.13446002 0.74700004 9601150
0.26286858 -0.13464001 0.74800003 8155509
0.26429331 -0.13464001 0.74800003 6767448
0.26642859 -0.13500002 0.75000006 4327483
0.26785716 -0.13500002 0.75000006 1911907
0.26928574 -0.13500002 0.75000006 5664908
0.27071431 -0.13500002 0.75000006 9471372
0.27214289 -0.13500002 0.75000006 9404300
0.2728419 -0.13464001 0.74800003 9337741
0.2739 -0.13446002 0.74700004 9141135
0.27458575 -0.13410001 0.74500006 8944525
0.27526382 -0.13374001 0.74300003 8813195
0.27667904 -0.13374001 0.74300003 8681864
0.27809429 -0.13374001 0.74300003 8484485
0.27950954 -0.13374001 0.74300003 8352133
0.28092477 -0.13374001 0.74300003 8220293
0.28233999 -0.13374001 0.74300003 8088708
0.28375524 -0.13374001 0.74300003 8088964
0.2851705 -0.13374001 0.74300003 8155013
0.28658572 -0.13374001 0.74300003 8156038
0.28800094 -0.13374001 0.74300003 8155778
0.29019526 -0.13410001 0.74500006 7496062
0.29083145 -0.13374001 0.74300003 6899610
0.29224667 -0.13374001 0.74300003 8482743
0.29326668 -0.13356 0.74200004 10076078
0.29468003 -0.13356 0.74200004 9678758
0.31064475 -0.13374001 0.74300003 6052191
0.31206003 -0.13374001 0.74300003 5985375
0.31347525 -0.13374001 0.74300003 5919323
0.31489047 -0.13374001 0.74300003 5853527
0.31630573 -0.13374001 0.74300003 5787727
0.31729335 -0.13356 0.74200004 4274760
0.31870669 -0.13356 0.74200004 2827336
0.31925714 -0.1332 0.74000001 3220041
0.32066667 -0.1332 0.74000001 3685458
0.32164097 -0.13302 0.73900002 4344156
0.32304859 -0.13302 0.73900002 5065047
0.32445621 -0.13302 0.73900002 5064019
0.32586381 -0.13302 0.73900002 5063503
0.32771429 -0.1332 0.74000001 5063243
0.32912382 -0.1332 0.74000001 5062211
0.33142668 -0.13356 0.74200004 4733243
0.33284003 -0.13356 0.74200004 4403256
0.33425337 -0.13356 0.74200004 3942454
0.33566669 -0.13356 0.74200004 3481909
0.33708 -0.13356 0.74200004 3218997
0.33849335 -0.13356 0.74200004 2957108
0.33990666 -0.13356 0.74200004 2893363
0.34132001 -0.13356 0.74200004 2827826
0.34180951 -0.1332 0.74000001 2762290
0.34321904 -0.1332 0.74000001 2697010
0.34462857 -0.1332 0.74000001 2631218
0.34603807 -0.1332 0.74000001 2631476
0.3469781 -0.13302 0.73900002 2696502
0.34838572 -0.13302 0.73900002 2761783
0.3488467 -0.13266002 0.73700005 2762040
0.35025051 -0.13266002 0.73700005 2827823
-0.33226001 -0.13837999 0.77700001 9340575
-0.32992858 -0.13802381 0.77500004 9209507
-0.32930002 -0.13837999 0.77700001 9143714
-0.32697621 -0.13802381 0.77500004 9143457
-0.32634002 -0.13837999 0.77700001 9208481
-0.32486001 -0.13837999 0.77700001 9208225
-0.32337999 -0.13837999 0.77700001 9206693
-0.32107145 -0.13802381 0.77500004 9205416
-0.31959525 -0.13802381 0.77500004 9205932
-0.31893998 -0.13837999 0.77700001 8747953
-0.31746 -0.13837999 0.77700001 8353969
-0.31597999 -0.13837999 0.77700001 8681137
-0.3145 -0.13837999 0.77700001 9009331
-0.31301999 -0.13837999 0.77700001 8352182
-0.31234193 -0.13873619 0.77900004 7765435
-0.31006002 -0.13837999 0.77700001 8092097
-0.30858001 -0.13837999 0.77700001 8484033
-0.30710003 -0.13837999 0.77700001 8351681
-0.30561998 -0.13837999 0.77700001 8287431
-0.30414 -0.13837999 0.77700001 8354254
-0.30265999 -0.13837999 0.77700001 8486865
-0.30040479 -0.13802381 0.77500004 8488659
-0.29892856 -0.13802381 0.77500004 8555481
-0.29822001 -0.13837999 0.77700001 8687838
-0.29597622 -0.13802381 0.77500004 8884193
-0.29526001 -0.13837999 0.77700001 9408227
-0.29378 -0.13837999 0.77700001 9934055
-0.29230002 -0.13837999 0.77700001 10066667
-0.29082 -0.13837999 0.77700001 10199532
-0.28859526 -0.13802381 0.77500004 10463726
-0.28785998 -0.13837999 0.77700001 10726388
-0.28637999 -0.13837999 0.77700001 11054586
-0.28489998 -0.13837999 0.77700001 11386105
-0.28342 -0.13837999 0.77700001 11783416
-0.2812143 -0.13802381 0.77500004 12176632
-0.2797381 -0.13802381 0.77500004 12045560
-0.27898002 -0.13837999 0.77700001 11980794
-0.2775 -0.13837999 0.77700001 12637180
-0.27530953 -0.13802381 0.77500004 13358587
-0.27383336 -0.13802381 0.77500004 13555963
-0.27235714 -0.13802381 0.77500004 13820411
-0.27088097 -0.13802381 0.77500004 14543612
-0.26940477 -0.13802381 0.77500004 15331835
-0.26792857 -0.13802381 0.77500004 15530234
-0.2664524 -0.13802381 0.77500004 15727610
-0.26565999 -0.13837999 0.77700001 15924987
-0.26418 -0.13837999 0.77700001 16187131
-0.26269999 -0.13837999 0.77700001 16187131
-0.26054764 -0.13802381 0.77500004 16252667
-0.25907144 -0.13802381 0.77500004 16383739
-0.25693047 -0.13766763 0.77300006 16580348
-0.25512761 -0.13748953 0.77200001 16645886
-0.25398573 -0.13766763 0.77300006 16711422
-0.25218666 -0.13748953 0.77200001 16711422
-0.25071621 -0.13748953 0.77200001 16711422
-0.2495686 -0.13766763 0.77300006 16711422
-0.2480962 -0.13766763 0.77300006 16711422
-0.2472619 -0.13802381 0.77500004 16711422
-0.24515145 -0.13766763 0.77300006 16711422
-0.24367906 -0.13766763 0.77300006 16711422
-0.24220668 -0.13766763 0.77300006 16711422
-0.24042286 -0.13748953 0.77200001 16711422
-0.23895238 -0.13748953 0.77200001 16711422
-0.23748191 -0.13748953 0.77200001 16711422
-0.23601143 -0.13748953 0.77200001 16711422
-0.23454095 -0.13748953 0.77200001 16711422
-0.23307048 -0.13748953 0.77200001 16711422
-0.23190002 -0.13766763 0.77300006 16711422
-0.23042764 -0.13766763 0.77300006 16711422
-0.22954762 -0.13802381 0.77500004 16711422
-0.22748289 -0.13766763 0.77300006 16711422
-0.22601049 -0.13766763 0.77300006 16711422
-0.22511905 -0.13802381 0.77500004 16711422
-0.22306573 -0.13766763 0.77300006 16711422
-0.22159335 -0.13766763 0.77300006 16711422
-0.22012097 -0.13766763 0.77300006 16711422
-0.2186486 -0.13766763 0.77300006 16711422
-0.21689524 -0.13748953 0.77200001 16711422
-0.21542476 -0.13748953 0.77200001 16711422
-0.21395428 -0.13748953 0.77200001 16711422
-0.21248381 -0.13748953 0.77200001 16711422
-0.21101335 -0.13748953 0.77200001 16711422
-0.20954286 -0.13748953 0.77200001 16711422
-0.20807238 -0.13748953 0.77200001 16711422
-0.2066019 -0.13748953 0.77200001 16711422
-0.20513143 -0.13748953 0.77200001 16711422
-0.20445238 -0.13802381 0.77500004 16711422
-0.2029762 -0.13802381 0.77500004 16711422
-0.20150001 -0.13802381 0.77500004 16711422
-0.20002382 -0.13802381 0.77500004 16711422
-0.19905999 -0.13837999 0.77700001 16711422
-0.19757999 -0.13837999 0.77700001 16711422
-0.1961 -0.13837999 0.77700001 16711422
-0.19411905 -0.13802381 0.77500004 16711422
-0.19214574 -0.13766763 0.77300006 16711422
-0.19067335 -0.13766763 0.77300006 16711422
-0.1889562 -0.13748953 0.77200001 16711422
-0.18748571 -0.13748953 0.77200001 16645886
-0.18601525 -0.13748953 0.77200001 16645629
-0.18454476 -0.13748953 0.77200001 16580092
-0.18307428 -0.13748953 0.77200001 16580092
-0.18113333 -0.13713333 0.77000004 16449021
-0.17966667 -0.13713333 0.77000004 16383484
-0.17820001 -0.13713333 0.77000004 16383484
-0.17673334 -0.13713333 0.77000004 16383482
-0.17526668 -0.13713333 0.77000004 16054521
-0.17380001 -0.13713333 0.77000004 15726839
-0.17233334 -0.13713333 0.77000004 14939125
-0.17020094 -0.13659905 0.76700002 14213362
-0.16983999 -0.13748953 0.77200001 13948143
-0.16858763 -0.13766763 0.77300006 13684463
-0.16711524 -0.13766763 0.77300006 13158640
-0.16607144 -0.13802381 0.77500004 12699631
-0.16417049 -0.13766763 0.77300006 12634095
-0.16248761 -0.13748953 0.77200001 12568304
-0.16101715 -0.13748953 0.77200001 12764657
-0.15954667 -0.13748953 0.77200001 12963572
-0.15807618 -0.13748953 0.77200001 13424631
-0.15660572 -0.13748953 0.77200001 13949687
-0.15473333 -0.13713333 0.77000004 13164280
-0.15326667 -0.13713333 0.77000004 12370414
-0.15140571 -0.13677713 0.76800001 10134755
-0.15033334 -0.13713333 0.77000004 7891922
-0.14886668 -0.13713333 0.77000004 6763202
-0.14740001 -0.13713333 0.77000004 5650350
-0.14593334 -0.13713333 0.77000004 6765979
-0.14446667 -0.13713333 0.77000004 7956655
-0.14300001 -0.13713333 0.77000004 10720195
-0.14153333 -0.13713333 0.77000004 13550815
-0.14006667 -0.13713333 0.77000004 14808828
-0.13824001 -0.13677713 0.76800001 16054267
-0.13677713 -0.13677713 0.76800001 15792377
-0.13531429 -0.13677713 0.76800001 15594231
-0.13385144 -0.13677713 0.76800001 15461877
-0.13273335 -0.13713333 0.77000004 15331060
-0.13126667 -0.13713333 0.77000004 15331315
-0.12980001 -0.13713333 0.77000004 15396596
-0.12833333 -0.13713333 0.77000004 15527924
-0.12637238 -0.13659905 0.76700002 15725558
-0.12491143 -0.13659905 0.76700002 15856887
-0.12312857 -0.13624287 0.76500005 15988471
-0.12198953 -0.13659905 0.76700002 15923447
-0.12021429 -0.13624287 0.76500005 15857398
-0.11875715 -0.13624287 0.76500005 15856886
-0.1173 -0.13624287 0.76500005 15856886
-0.11629714 -0.13677713 0.76800001 15791094
-0.11483429 -0.13677713 0.76800001 15791350
-0.11337143 -0.13677713 0.76800001 15856887
-0.11176286 -0.13659905 0.76700002 15922423
-0.1103019 -0.13659905 0.76700002 15856888
-0.10855715 -0.13624287 0.76500005 15856631
-0.10710001 -0.13624287 0.76500005 15725559
-0.10564286 -0.13624287 0.76500005 15660279
-0.10418572 -0.13624287 0.76500005 15791607
-0.10299715 -0.13659905 0.76700002 15923448
-0.10166857 -0.13677713 0.76800001 15989754
-0.10007524 -0.13659905 0.76700002 16054778
-0.098742858 -0.13677713 0.76800001 16119802
-0.097153336 -0.13659905 0.76700002 16251642
-0.095692381 -0.13659905 0.76700002 16318203
-0.094354287 -0.13677713 0.76800001 16383737
-0.092891432 -0.13677713 0.76800001 16252663
-0.091904759 -0.13748953 0.77200001 16119533
-0.090434283 -0.13748953 0.77200001 15724515
-0.089309521 -0.13802381 0.77500004 15327194
-0.088059999 -0.13837999 0.77700001 14405585
-0.086802863 -0.13873619 0.77900004 13546694
-0.08531905 -0.13873619 0.77900004 12229052
-0.079207622 -0.13107811 0.73600006 10976438
-0.07780572 -0.13107811 0.73600006 9986225
-0.076507628 -0.13125621 0.73700005 8998065
-0.075307623 -0.13161239 0.73900002 7223473
