# .PCD v0.7 - Point Cloud Data file format
VERSION 0.7
FIELDS x y z rgba
SIZE 4 4 4 4
TYPE F F F U
COUNT 1 1 1 1
WIDTH 1135
HEIGHT 1
VIEWPOINT 0 0 0 1 0 0 0
POINTS 1135
DATA ascii
0.18806383 -0.19848287 0.54700005 16711422
0.18876 -0.19812 0.546 16711422
0.18980001 -0.19812 0.546 16711422
0.19084001 -0.19812 0.546 16711422
0.19188 -0.19812 0.546 16711422
0.19983335 -0.19775714 0.54500002 16711422
0.20087144 -0.19775714 0.54500002 16711422
0.20153905 -0.1973943 0.54400003 16711422
0.20257525 -0.1973943 0.54400003 16711422
0.20361143 -0.1973943 0.54400003 16711422
0.20427144 -0.19703144 0.54300004 16711422
0.20530573 -0.19703144 0.54300004 16711422
0.20634001 -0.19703144 0.54300004 16711422
0.21293716 -0.1973943 0.54400003 16711422
0.21358001 -0.19703144 0.54300004 16711422
-0.23206668 -0.21296191 0.59000003 9209547
-0.23055145 -0.21260096 0.58900005 8947911
-0.22942954 -0.21260096 0.58900005 8750790
-0.21030095 -0.2136838 0.59200001 14474733
-0.20917334 -0.2136838 0.59200001 14671340
-0.20804571 -0.2136838 0.59200001 14868717
-0.14479333 -0.21187904 0.58700001 16711422
-0.14367524 -0.21187904 0.58700001 16711422
-0.14231429 -0.21151811 0.58600003 16711422
0.1390619 -0.19888476 0.551 16711422
0.14062001 -0.19960667 0.55300003 16711422
0.14116095 -0.19888476 0.551 16711422
0.14221047 -0.19888476 0.551 16711422
0.14326 -0.19888476 0.551 16711422
0.1545238 -0.1985238 0.55000001 16711422
0.15557143 -0.1985238 0.55000001 16711422
0.15738 -0.19816287 0.54900002 16711422
0.15842572 -0.19816287 0.54900002 16711422
0.16110191 -0.19888476 0.551 16711422
0.16156286 -0.19816287 0.54900002 16711422
0.16290477 -0.1985238 0.55000001 16711422
0.16365428 -0.19816287 0.54900002 16711422
0.16499999 -0.1985238 0.55000001 16711422
0.16544382 -0.19780192 0.54800004 16711422
0.16679144 -0.19816287 0.54900002 16711422
0.16753143 -0.19780192 0.54800004 16711422
0.17190859 -0.19924574 0.55200005 16711422
0.17556097 -0.19744097 0.54700005 16711422
0.17660287 -0.19744097 0.54700005 16711422
0.18772 -0.19708 0.546 16711422
0.18910573 -0.19744097 0.54700005 16711422
0.18980001 -0.19708 0.546 16711422
0.19084001 -0.19708 0.546 16711422
0.19188 -0.19708 0.546 16711422
0.19327334 -0.19744097 0.54700005 16711422
0.19431525 -0.19744097 0.54700005 16711422
0.20020001 -0.19708 0.546 16711422
0.20087144 -0.19671905 0.54500002 16711422
0.20190953 -0.19671905 0.54500002 16711422
0.20294762 -0.19671905 0.54500002 16711422
0.20361143 -0.1963581 0.54400003 16711422
0.20464762 -0.1963581 0.54400003 16711422
0.20530573 -0.19599715 0.54300004 16711422
0.20634001 -0.19599715 0.54300004 16711422
0.20737429 -0.19599715 0.54300004 16711422
0.20840858 -0.19599715 0.54300004 16711422
0.21047716 -0.19599715 0.54300004 16711422
0.21151145 -0.19599715 0.54300004 16711422
0.21254574 -0.19599715 0.54300004 16711422
0.21358001 -0.19599715 0.54300004 16711422
0.21421906 -0.1956362 0.54200006 16711422
0.21604572 -0.1963581 0.54400003 16711422
0.21668287 -0.19599715 0.54300004 16711401
0.21731621 -0.1956362 0.54200006 10267092
0.21834859 -0.1956362 0.54200006 3867057
0.22000667 -0.19527523 0.54100001 7436435
0.22512001 -0.19347049 0.53600001 5925512
-0.23206668 -0.2118381 0.59000003 8950472
-0.23055145 -0.21147907 0.58900005 8882632
-0.22942954 -0.21147907 0.58900005 8750790
-0.21142857 -0.2125562 0.59200001 14212335
-0.21030095 -0.2125562 0.59200001 14474734
-0.20917334 -0.2125562 0.59200001 14671598
-0.20804571 -0.2125562 0.59200001 14869487
-0.14566286 -0.21040191 0.58600003 16711422
-0.14454667 -0.21040191 0.58600003 16711422
-0.14343049 -0.21040191 0.58600003 16711422
-0.14207143 -0.21004286 0.58500004 16711422
-0.14095715 -0.21004286 0.58500004 16711422
-0.12959239 -0.20968382 0.58400005 16711422
-0.12848 -0.20968382 0.58400005 16711422
-0.12736763 -0.20968382 0.58400005 16711422
-0.12625524 -0.20968382 0.58400005 16711422
-0.12514286 -0.20968382 0.58400005 16711422
-0.1238181 -0.20932476 0.583 16711422
-0.12270762 -0.20932476 0.583 16711422
0.14116095 -0.19783524 0.551 16711422
0.14221047 -0.19783524 0.551 16711422
0.14326 -0.19783524 0.551 16711422
0.14430952 -0.19783524 0.551 16711422
0.14535904 -0.19783524 0.551 16711422
0.14640857 -0.19783524 0.551 16711422
0.15242857 -0.19747619 0.55000001 16711422
0.15347619 -0.19747619 0.55000001 16711422
0.15480475 -0.19783524 0.551 16711422
0.15557143 -0.19747619 0.55000001 16711422
0.15661904 -0.19747619 0.55000001 16711422
0.16499999 -0.19747619 0.55000001 16711422
0.17483811 -0.19675811 0.54800004 16711422
0.17588191 -0.19675811 0.54800004 16711422
0.17660287 -0.19639906 0.54700005 16711422
0.17764479 -0.19639906 0.54700005 16711422
0.18598002 -0.19639906 0.54700005 16711422
0.18668 -0.19603999 0.546 16711422
0.18772 -0.19603999 0.546 16711422
0.18876 -0.19603999 0.546 16711422
0.19118954 -0.19639906 0.54700005 16711422
0.19223145 -0.19639906 0.54700005 16711422
0.19327334 -0.19639906 0.54700005 16711422
0.19431525 -0.19639906 0.54700005 16711422
0.19535716 -0.19639906 0.54700005 16711422
0.19915999 -0.19603999 0.546 16711422
0.20020001 -0.19603999 0.546 16711422
0.20124 -0.19603999 0.546 16711422
0.20190953 -0.19568096 0.54500002 16711422
0.20634001 -0.19496287 0.54300004 16711422
0.20737429 -0.19496287 0.54300004 16711422
0.20879239 -0.19532192 0.54400003 16711422
0.20982857 -0.19532192 0.54400003 16711422
0.21086477 -0.19532192 0.54400003 16711422
0.21190096 -0.19532192 0.54400003 16711422
0.22451714 -0.19280857 0.537 5990538
-0.22942954 -0.21035716 0.58900005 8816839
-0.2136838 -0.21142857 0.59200001 14212587
-0.2125562 -0.21142857 0.59200001 14015724
-0.21142857 -0.21142857 0.59200001 14212077
-0.21030095 -0.21142857 0.59200001 14474733
-0.20882 -0.21107145 0.59100002 14671853
-0.20769429 -0.21107145 0.59100002 14869230
-0.20656857 -0.21107145 0.59100002 14935024
-0.14764287 -0.20892859 0.58500004 16711422
-0.14652859 -0.20892859 0.58500004 16711422
-0.14566286 -0.20928572 0.58600003 16711422
-0.14380667 -0.20821428 0.583 16711422
-0.14294097 -0.20857143 0.58400005 16711422
-0.12959239 -0.20857143 0.58400005 16711422
-0.12848 -0.20857143 0.58400005 16711422
-0.12736763 -0.20857143 0.58400005 16711422
-0.12625524 -0.20857143 0.58400005 16711422
-0.12492857 -0.20821428 0.583 16711422
-0.1238181 -0.20821428 0.583 16711422
-0.12270762 -0.20821428 0.583 16711422
-0.12159714 -0.20821428 0.583 16711422
-0.11382381 -0.20821428 0.583 16711422
-0.11271333 -0.20821428 0.583 16711422
-0.11160286 -0.20821428 0.583 16711422
-0.11030286 -0.20785715 0.58200002 16711422
0.10662572 -0.19892858 0.55700004 16711422
0.11047143 -0.19821428 0.55500001 16711422
0.11152858 -0.19821428 0.55500001 16711422
0.11258572 -0.19821428 0.55500001 16711422
0.11364286 -0.19821428 0.55500001 16711422
0.1147 -0.19821428 0.55500001 16711422
0.1271562 -0.19785714 0.55400002 16711422
0.12821144 -0.19785714 0.55400002 16711422
0.12926668 -0.19785714 0.55400002 16711422
0.13381429 -0.19678572 0.551 16711422
0.13486381 -0.19678572 0.551 16711422
0.14719048 -0.19642857 0.55000001 16711422
0.14796858 -0.19607145 0.54900002 16711422
0.15508573 -0.19714287 0.55200005 16711422
0.17085715 -0.19714287 0.55200005 16711422
0.17483811 -0.19571429 0.54800004 16711422
0.17588191 -0.19571429 0.54800004 16711422
0.17692573 -0.19571429 0.54800004 16711422
0.17796953 -0.19571429 0.54800004 16711422
0.17868668 -0.19535716 0.54700005 16711422
0.18110095 -0.19571429 0.54800004 16711422
0.18214478 -0.19571429 0.54800004 16711422
0.18285431 -0.19535716 0.54700005 16711422
0.1838962 -0.19535716 0.54700005 16711422
0.1846 -0.19499999 0.546 16711422
0.18598002 -0.19535716 0.54700005 16711422
0.19153906 -0.19571429 0.54800004 16711422
0.19258288 -0.19571429 0.54800004 16711422
0.19362667 -0.19571429 0.54800004 16711422
0.19467048 -0.19571429 0.54800004 16711422
0.19535716 -0.19535716 0.54700005 16711422
0.19639906 -0.19535716 0.54700005 16711422
0.19744097 -0.19535716 0.54700005 16711422
0.19812 -0.19499999 0.546 16711422
0.19915999 -0.19499999 0.546 16711422
0.20056668 -0.19535716 0.54700005 16711422
0.20124 -0.19499999 0.546 16711422
0.20228 -0.19499999 0.546 16711422
0.23562001 -0.19250001 0.53900003 5528442
0.23664668 -0.19250001 0.53900003 5528183
0.23767336 -0.19250001 0.53900003 5594236
0.2387 -0.19250001 0.53900003 5791105
-0.21593906 -0.21030095 0.59200001 9871583
-0.21481143 -0.21030095 0.59200001 14148582
-0.2136838 -0.21030095 0.59200001 14081005
-0.2125562 -0.21030095 0.59200001 14078700
-0.21142857 -0.21030095 0.59200001 14277612
-0.20994572 -0.20994572 0.59100002 14474732
-0.20882 -0.20994572 0.59100002 14671853
-0.20734286 -0.20959048 0.59000003 14868974
-0.20621906 -0.20959048 0.59000003 14935536
-0.20509525 -0.20959048 0.59000003 15067377
-0.18230954 -0.20923525 0.58900005 16711422
-0.18088 -0.20888001 0.588 16711422
-0.17975999 -0.20888001 0.588 16711422
-0.14764287 -0.20781431 0.58500004 16711422
-0.1462781 -0.20745906 0.58400005 16711422
-0.14516573 -0.20745906 0.58400005 16711422
-0.14380667 -0.2071038 0.583 16711422
-0.14294097 -0.20745906 0.58400005 16711422
-0.12826 -0.2071038 0.583 16711422
-0.12714952 -0.2071038 0.583 16711422
-0.12603904 -0.2071038 0.583 16711422
-0.12492857 -0.2071038 0.583 16711422
-0.1238181 -0.2071038 0.583 16711422
-0.11826571 -0.2071038 0.583 16711422
-0.1173562 -0.20745906 0.58400005 16711422
-0.11624382 -0.20745906 0.58400005 16711422
-0.11493429 -0.2071038 0.583 16711422
-0.11362857 -0.20674857 0.58200002 16711422
-0.11141143 -0.20674857 0.58200002 16711422
-0.098277144 -0.2071038 0.583 16711422
-0.097166665 -0.2071038 0.583 16711422
-0.093352385 -0.2060381 0.58000004 16711422
-0.092247628 -0.2060381 0.58000004 16711422
-0.091142863 -0.2060381 0.58000004 16711422
-0.090038106 -0.2060381 0.58000004 16711422
-0.085619055 -0.2060381 0.58000004 16711422
-0.08451429 -0.2060381 0.58000004 16711422
-0.083409533 -0.2060381 0.58000004 16711422
-0.073213331 -0.20532763 0.57800001 16711422
-0.071987621 -0.20497239 0.57700002 16711422
-0.071011432 -0.20532763 0.57800001 16711422
0.082666665 -0.19893333 0.56 16711422
0.083733328 -0.19893333 0.56 16711422
0.084648572 -0.19857809 0.55900002 16711422
0.085713334 -0.19857809 0.55900002 16711422
0.086778097 -0.19857809 0.55900002 16711422
0.087685719 -0.19822288 0.55800003 16711422
0.088748574 -0.19822288 0.55800003 16711422
0.089650482 -0.19786763 0.55700004 16711422
0.090874292 -0.19822288 0.55800003 16711422
0.091772385 -0.19786763 0.55700004 16711422
0.09283334 -0.19786763 0.55700004 16711422
0.093894288 -0.19786763 0.55700004 16711422
0.094955251 -0.19786763 0.55700004 16711422
0.096016198 -0.19786763 0.55700004 16711422
0.10469143 -0.19822288 0.55800003 16711422
0.10556477 -0.19786763 0.55700004 16711422
0.10662572 -0.19786763 0.55700004 16711422
0.10768667 -0.19786763 0.55700004 16711422
0.10874762 -0.19786763 0.55700004 16711422
0.10961144 -0.19751239 0.55600005 16711422
0.11067048 -0.19751239 0.55600005 16711422
0.11152858 -0.19715714 0.55500001 16711422
0.11278858 -0.19751239 0.55600005 16711422
0.11384763 -0.19751239 0.55600005 16711422
0.1147 -0.19715714 0.55500001 16711422
0.11575714 -0.19715714 0.55500001 16711422
0.11681429 -0.19715714 0.55500001 16711422
0.11787143 -0.19715714 0.55500001 16711422
0.11892857 -0.19715714 0.55500001 16711422
0.12632857 -0.19715714 0.55500001 16711422
0.12738572 -0.19715714 0.55500001 16711422
0.12844285 -0.19715714 0.55500001 16711422
0.12926668 -0.19680192 0.55400002 16711422
0.13008668 -0.19644667 0.55300003 16711422
0.13300572 -0.19609144 0.55200005 16711422
0.13381429 -0.19573618 0.551 16711422
0.16168667 -0.19644667 0.55300003 16711422
0.16274001 -0.19644667 0.55300003 16711422
0.17085715 -0.19609144 0.55200005 16711422
0.17515714 -0.19502573 0.54900002 16711422
0.17588191 -0.19467048 0.54800004 16711422
0.17692573 -0.19467048 0.54800004 16711422
0.18247715 -0.19502573 0.54900002 16711422
0.18318857 -0.19467048 0.54800004 16711422
0.1838962 -0.19431525 0.54700005 16711422
0.1849381 -0.19431525 0.54700005 16711422
0.19153906 -0.19467048 0.54800004 16711422
0.19258288 -0.19467048 0.54800004 16711422
0.19362667 -0.19467048 0.54800004 16711422
0.19467048 -0.19467048 0.54800004 16711422
0.19535716 -0.19431525 0.54700005 16711422
0.19639906 -0.19431525 0.54700005 16711422
0.19744097 -0.19431525 0.54700005 16711422
0.19848287 -0.19431525 0.54700005 16711422
0.19952478 -0.19431525 0.54700005 16711422
0.20056668 -0.19431525 0.54700005 16711422
0.23459335 -0.19147335 0.53900003 5463676
0.2372324 -0.19111811 0.53800005 5725566
0.23825717 -0.19111811 0.53800005 5790852
0.23928192 -0.19111811 0.53800005 5921666
-0.21819429 -0.20917334 0.59200001 6448796
-0.21706666 -0.20917334 0.59200001 5722036
-0.21593906 -0.20917334 0.59200001 9740236
-0.21481143 -0.20917334 0.59200001 13817054
-0.2136838 -0.20917334 0.59200001 13949679
-0.2125562 -0.20917334 0.59200001 14146286
-0.21142857 -0.20917334 0.59200001 14277613
-0.20994572 -0.20882 0.59100002 14474733
-0.20846668 -0.20846668 0.59000003 14671853
-0.20699145 -0.20811334 0.58900005 14935023
-0.20586953 -0.20811334 0.58900005 15002352
-0.20474763 -0.20811334 0.58900005 15132657
-0.18230954 -0.20811334 0.58900005 16711422
-0.18088 -0.20775999 0.588 16711422
-0.17975999 -0.20775999 0.588 16711422
-0.15321431 -0.20670001 0.58500004 16711422
-0.14850287 -0.20634668 0.58400005 16711422
-0.14739048 -0.20634668 0.58400005 16711422
-0.1462781 -0.20634668 0.58400005 16711422
-0.14516573 -0.20634668 0.58400005 16711422
-0.14380667 -0.20599332 0.583 16711422
-0.14318573 -0.20670001 0.58500004 16711422
-0.099387623 -0.20599332 0.583 16711422
-0.098277144 -0.20599332 0.583 16711422
-0.097166665 -0.20599332 0.583 16711422
-0.093352385 -0.20493336 0.58000004 16711422
-0.092247628 -0.20493336 0.58000004 16711422
-0.091142863 -0.20493336 0.58000004 16711422
-0.090038106 -0.20493336 0.58000004 16711422
-0.088933334 -0.20493336 0.58000004 16711422
-0.087828577 -0.20493336 0.58000004 16711422
-0.086723812 -0.20493336 0.58000004 16711422
-0.085619055 -0.20493336 0.58000004 16711422
-0.08451429 -0.20493336 0.58000004 16711422
-0.083265722 -0.20458002 0.57900006 16711422
-0.082162865 -0.20458002 0.57900006 16711422
-0.081060007 -0.20458002 0.57900006 16711422
-0.074571431 -0.20493336 0.58000004 16711422
-0.060785718 -0.20316668 0.57500005 16711422
0.047975242 -0.19998668 0.56600004 16711422
0.048966669 -0.19963333 0.565 16711422
0.050042856 -0.19963333 0.565 16711422
0.052102856 -0.19927999 0.56400001 16711422
0.053177144 -0.19927999 0.56400001 16711422
0.054251429 -0.19927999 0.56400001 16711422
0.055325717 -0.19927999 0.56400001 16711422
0.056400001 -0.19927999 0.56400001 16711422
0.057474285 -0.19927999 0.56400001 16711422
0.058444764 -0.19892667 0.56300002 16711422
0.059517145 -0.19892667 0.56300002 16711422
0.060589526 -0.19892667 0.56300002 16711422
0.064648576 -0.19822001 0.56100005 16711422
0.065717146 -0.19822001 0.56100005 16711422
0.072128579 -0.19822001 0.56100005 16711422
0.073197149 -0.19822001 0.56100005 16711422
0.074265718 -0.19822001 0.56100005 16711422
0.075334288 -0.19822001 0.56100005 16711422
0.080533333 -0.19786666 0.56 16711422
0.081600003 -0.19786666 0.56 16711422
0.082666665 -0.19786666 0.56 16711422
0.083733328 -0.19786666 0.56 16711422
0.084799998 -0.19786666 0.56 16711422
0.10469143 -0.19716001 0.55800003 16711422
0.10575429 -0.19716001 0.55800003 16711422
0.10681715 -0.19716001 0.55800003 16711422
0.10788 -0.19716001 0.55800003 16711422
0.11067048 -0.19645335 0.55600005 16711422
0.11172953 -0.19645335 0.55600005 16711422
0.11278858 -0.19645335 0.55600005 16711422
0.11384763 -0.19645335 0.55600005 16711422
0.1147 -0.1961 0.55500001 16711422
0.11575714 -0.1961 0.55500001 16711422
0.11681429 -0.1961 0.55500001 16711422
0.11787143 -0.1961 0.55500001 16711422
0.11892857 -0.1961 0.55500001 16711422
0.11998571 -0.1961 0.55500001 16711422
0.12104286 -0.1961 0.55500001 16711422
0.1221 -0.1961 0.55500001 16711422
0.12632857 -0.1961 0.55500001 16711422
0.12738572 -0.1961 0.55500001 16711422
0.12844285 -0.1961 0.55500001 16711422
0.12926668 -0.19574668 0.55400002 16711422
0.13032191 -0.19574668 0.55400002 16711422
0.16168667 -0.19539334 0.55300003 16711422
0.16274001 -0.19539334 0.55300003 16711422
0.16906001 -0.19539334 0.55300003 16711422
0.17011334 -0.19539334 0.55300003 16711422
0.17116667 -0.19539334 0.55300003 16711422
0.18247715 -0.19398001 0.54900002 16711422
0.18352287 -0.19398001 0.54900002 16711422
0.19153906 -0.19362667 0.54800004 16711422
0.19258288 -0.19362667 0.54800004 16711422
0.19362667 -0.19362667 0.54800004 16711422
0.19467048 -0.19362667 0.54800004 16711422
0.19571429 -0.19362667 0.54800004 16711422
0.19639906 -0.19327334 0.54700005 16711422
0.19744097 -0.19327334 0.54700005 16711422
0.23254003 -0.19044667 0.53900003 5529981
0.23356667 -0.19044667 0.53900003 5398138
0.23459335 -0.19044667 0.53900003 5398391
0.23518287 -0.19009335 0.53800005 5397369
0.23664668 -0.19044667 0.53900003 5594235
0.23767336 -0.19044667 0.53900003 5857150
0.2387 -0.19044667 0.53900003 5857665
0.23972668 -0.19044667 0.53900003 5857151
-0.21706666 -0.20804571 0.59200001 5853356
-0.21593906 -0.20804571 0.59200001 9410234
-0.21481143 -0.20804571 0.59200001 12961238
-0.2136838 -0.20804571 0.59200001 13622002
-0.2125562 -0.20804571 0.59200001 14210800
-0.21142857 -0.20804571 0.59200001 14342382
-0.20994572 -0.20769429 0.59100002 14407662
-0.20846668 -0.20734286 0.59000003 14606318
-0.20699145 -0.20699145 0.58900005 14869999
-0.20586953 -0.20699145 0.58900005 14935793
-0.20474763 -0.20699145 0.58900005 15001585
-0.18230954 -0.20699145 0.58900005 16711422
-0.18088 -0.20664001 0.588 16711422
-0.18006572 -0.20699145 0.58900005 16711422
-0.17894383 -0.20699145 0.58900005 16711422
-0.1646381 -0.20734286 0.59000003 16711422
-0.15517716 -0.2052343 0.58400005 16711422
-0.15406477 -0.2052343 0.58400005 16711422
-0.1529524 -0.2052343 0.58400005 16711422
-0.14764287 -0.20558573 0.58500004 16711422
-0.1462781 -0.2052343 0.58400005 16711422
-0.14516573 -0.2052343 0.58400005 16711422
-0.14405334 -0.2052343 0.58400005 16711422
-0.14318573 -0.20558573 0.58500004 16711422
-0.11083715 -0.20347716 0.57900006 16711422
-0.10863144 -0.20347716 0.57900006 16711422
-0.077885717 -0.20382859 0.58000004 16711422
-0.076780953 -0.20382859 0.58000004 16711422
-0.075676195 -0.20382859 0.58000004 16711422
-0.065620005 -0.20347716 0.57900006 16711422
-0.064517148 -0.20347716 0.57900006 16711422
-0.048822861 -0.20242286 0.57600003 16711422
-0.047725718 -0.20242286 0.57600003 16711422
-0.046547621 -0.20207144 0.57500005 16711422
-0.045452382 -0.20207144 0.57500005 16711422
-0.044357147 -0.20207144 0.57500005 16711422
-0.043261908 -0.20207144 0.57500005 16711422
-0.042093333 -0.20172 0.574 16711422
-0.040999997 -0.20172 0.574 16711422
-0.033404768 -0.20207144 0.57500005 16711422
-0.032309525 -0.20207144 0.57500005 16711422
-0.02788 -0.20172 0.574 16711422
-0.021282857 -0.20136859 0.57300001 16711422
-0.0081571434 -0.20066573 0.57100004 16711422
-0.0070695239 -0.20066573 0.57100004 16711422
0.0027095238 -0.19996285 0.56900001 16711422
0.015687618 -0.19961144 0.56800002 16711422
0.031803809 -0.19890858 0.56600004 16711422
0.032881904 -0.19890858 0.56600004 16711422
0.03396 -0.19890858 0.56600004 16711422
0.035038099 -0.19890858 0.56600004 16711422
0.037128571 -0.19855714 0.565 16711422
0.038204763 -0.19855714 0.565 16711422
0.047975242 -0.19890858 0.56600004 16711422
0.048966669 -0.19855714 0.565 16711422
0.050042856 -0.19855714 0.565 16711422
0.055325717 -0.19820571 0.56400001 16711422
0.057474285 -0.19820571 0.56400001 16711422
0.059622858 -0.19820571 0.56400001 16711422
0.075334288 -0.19715144 0.56100005 16711422
0.076402865 -0.19715144 0.56100005 16711422
0.077471435 -0.19715144 0.56100005 16711422
0.078400001 -0.19679999 0.56 16711422
0.079608575 -0.19715144 0.56100005 16711422
0.080677144 -0.19715144 0.56100005 16711422
0.081745721 -0.19715144 0.56100005 16711422
0.082814291 -0.19715144 0.56100005 16711422
0.10469143 -0.19609715 0.55800003 16711422
0.10575429 -0.19609715 0.55800003 16711422
0.10681715 -0.19609715 0.55800003 16711422
0.10768667 -0.19574574 0.55700004 16711422
0.11299143 -0.19574574 0.55700004 16711422
0.11384763 -0.19539429 0.55600005 16711422
0.11490668 -0.19539429 0.55600005 16711422
0.11596572 -0.19539429 0.55600005 16711422
0.11681429 -0.19504285 0.55500001 16711422
0.11787143 -0.19504285 0.55500001 16711422
0.11892857 -0.19504285 0.55500001 16711422
0.11998571 -0.19504285 0.55500001 16711422
0.12104286 -0.19504285 0.55500001 16711422
0.1221 -0.19504285 0.55500001 16711422
0.1265562 -0.19539429 0.55600005 16711422
0.12761526 -0.19539429 0.55600005 16711422
0.12844285 -0.19504285 0.55500001 16711422
0.12926668 -0.19469143 0.55400002 16711422
0.16063334 -0.19434001 0.55300003 16711422
0.16168667 -0.19434001 0.55300003 16711422
0.16274001 -0.19434001 0.55300003 16711422
0.16320094 -0.19363715 0.551 16711422
0.16454859 -0.19398859 0.55200005 16711422
0.16875429 -0.19398859 0.55200005 16711422
0.17011334 -0.19434001 0.55300003 16711422
0.17116667 -0.19434001 0.55300003 16711422
0.18979715 -0.19293429 0.54900002 16711422
0.19084287 -0.19293429 0.54900002 16711422
0.19153906 -0.19258288 0.54800004 16711422
0.19258288 -0.19258288 0.54800004 16711422
0.19362667 -0.19258288 0.54800004 16711422
0.19467048 -0.19258288 0.54800004 16711422
0.19571429 -0.19258288 0.54800004 16711422
0.19675811 -0.19258288 0.54800004 16711422
0.21619526 -0.19223145 0.54700005 16711422
0.21684 -0.19188 0.546 15728382
0.21827906 -0.19223145 0.54700005 14797244
0.21891999 -0.19188 0.546 9590138
0.23210859 -0.18906859 0.53800005 5462908
0.23313336 -0.18906859 0.53800005 5332087
0.23459335 -0.18942 0.53900003 5397362
0.23518287 -0.18906859 0.53800005 5462647
0.23664668 -0.18942 0.53900003 5922429
0.23767336 -0.18942 0.53900003 6382205
0.2387 -0.18942 0.53900003 6054526
0.23972668 -0.18942 0.53900003 5792637
-0.21593906 -0.20691811 0.59200001 9080509
-0.2151743 -0.20726764 0.59300005 12173015
-0.2136838 -0.20691811 0.59200001 13229042
-0.2125562 -0.20691811 0.59200001 14342896
-0.21142857 -0.20691811 0.59200001 14342893
-0.20994572 -0.20656857 0.59100002 14407661
-0.20882 -0.20656857 0.59100002 14606573
-0.20769429 -0.20656857 0.59100002 14803694
-0.20621906 -0.20621906 0.59000003 14803951
-0.20509525 -0.20621906 0.59000003 14869231
-0.18312 -0.20552 0.588 16711422
-0.18200001 -0.20552 0.588 16711422
-0.18088 -0.20552 0.588 16711422
-0.17975999 -0.20552 0.588 16711422
-0.17894383 -0.20586953 0.58900005 16711422
-0.17782192 -0.20586953 0.58900005 16711422
-0.16968 -0.20552 0.588 16711422
-0.16827333 -0.20517047 0.58700001 16711422
-0.16715524 -0.20517047 0.58700001 16711422
-0.1610143 -0.20447144 0.58500004 16711422
-0.15990001 -0.20447144 0.58500004 16711422
-0.15878572 -0.20447144 0.58500004 16711422
-0.15767144 -0.20447144 0.58500004 16711422
-0.15655716 -0.20447144 0.58500004 16711422
-0.15517716 -0.20412192 0.58400005 16711422
-0.15406477 -0.20412192 0.58400005 16711422
-0.14764287 -0.20447144 0.58500004 16711422
-0.14652859 -0.20447144 0.58500004 16711422
-0.14516573 -0.20412192 0.58400005 16711422
-0.14405334 -0.20412192 0.58400005 16711422
-0.14294097 -0.20412192 0.58400005 16711422
-0.12914857 -0.20342286 0.58200002 16711422
-0.12782001 -0.20307334 0.58100003 16711422
-0.12539048 -0.20272382 0.58000004 16711422
-0.11083715 -0.20237431 0.57900006 16711422
-0.10992382 -0.20272382 0.58000004 16711422
-0.10863144 -0.20237431 0.57900006 16711422
0.050131433 -0.19783048 0.56600004 16711422
0.054347616 -0.19748095 0.565 16711422
0.056499999 -0.19748095 0.565 16711422
0.10469143 -0.1950343 0.55800003 16711422
0.10575429 -0.1950343 0.55800003 16711422
0.10681715 -0.1950343 0.55800003 16711422
0.10788 -0.1950343 0.55800003 16711422
0.10874762 -0.19468477 0.55700004 16711422
0.11596572 -0.19433525 0.55600005 16711422
0.11892857 -0.19398572 0.55500001 16711422
0.11998571 -0.19398572 0.55500001 16711422
0.12632857 -0.19398572 0.55500001 16711422
0.12738572 -0.19398572 0.55500001 16711422
0.12844285 -0.19398572 0.55500001 16711422
0.15536667 -0.19328669 0.55300003 16711422
0.15747334 -0.19328669 0.55300003 16711422
0.15852667 -0.19328669 0.55300003 16711422
0.15958001 -0.19328669 0.55300003 16711422
0.16063334 -0.19328669 0.55300003 16711422
0.16168667 -0.19328669 0.55300003 16711422
0.16274001 -0.19328669 0.55300003 16711422
0.16379334 -0.19328669 0.55300003 16711422
0.16454859 -0.19293715 0.55200005 16711422
0.16590001 -0.19328669 0.55300003 16711422
0.16695334 -0.19328669 0.55300003 16711422
0.16906001 -0.19328669 0.55300003 16711422
0.16980574 -0.19293715 0.55200005 16711422
0.17116667 -0.19328669 0.55300003 16711422
0.19014287 -0.19223809 0.55000001 16711422
0.19084287 -0.19188857 0.54900002 16711422
0.19188857 -0.19188857 0.54900002 16711422
0.19293429 -0.19188857 0.54900002 16711422
0.19398001 -0.19188857 0.54900002 16711422
0.19502573 -0.19188857 0.54900002 16711422
0.19571429 -0.19153906 0.54800004 16711422
0.19675811 -0.19153906 0.54800004 16711422
0.19780192 -0.19153906 0.54800004 16711422
0.19884571 -0.19153906 0.54800004 16711422
0.21372001 -0.19084001 0.546 16711422
0.21515335 -0.19118954 0.54700005 16711422
0.21619526 -0.19118954 0.54700005 16711422
0.21684 -0.19084001 0.546 15138558
0.21788 -0.19084001 0.546 13545400
0.21891999 -0.19084001 0.546 9259123
0.22036289 -0.19118954 0.54700005 5069700
0.221 -0.19084001 0.546 5926549
0.23254003 -0.18839335 0.53900003 5397370
0.23313336 -0.18804382 0.53800005 5266297
0.23415811 -0.18804382 0.53800005 5395831
0.23518287 -0.18804382 0.53800005 5527678
-0.21593906 -0.20579048 0.59200001 8877760
-0.2151743 -0.20613812 0.59300005 11843545
-0.21404478 -0.20613812 0.59300005 13164531
-0.21291526 -0.20613812 0.59300005 14473456
-0.21142857 -0.20579048 0.59200001 14473453
-0.21030095 -0.20579048 0.59200001 14538988
-0.20882 -0.20544286 0.59100002 15064556
-0.20769429 -0.20544286 0.59100002 15655661
-0.20586953 -0.20474763 0.58900005 15655406
-0.20474763 -0.20474763 0.58900005 15655405
-0.19868857 -0.20544286 0.59100002 16711412
-0.19756286 -0.20544286 0.59100002 16711422
-0.19610478 -0.20509525 0.59000003 16711422
-0.19498096 -0.20509525 0.59000003 16711422
-0.19385716 -0.20509525 0.59000003 16711422
-0.18312 -0.20439999 0.588 16711422
-0.18200001 -0.20439999 0.588 16711422
-0.18088 -0.20439999 0.588 16711422
-0.17975999 -0.20439999 0.588 16711422
-0.17894383 -0.20474763 0.58900005 16711422
-0.17782192 -0.20474763 0.58900005 16711422
-0.17670001 -0.20474763 0.58900005 16711422
-0.17528 -0.20439999 0.588 16711422
-0.17415999 -0.20439999 0.588 16711422
-0.16939144 -0.20405239 0.58700001 16711422
-0.16827333 -0.20405239 0.58700001 16711422
-0.16687047 -0.20370477 0.58600003 16711422
-0.1646381 -0.20370477 0.58600003 16711422
-0.1610143 -0.20335715 0.58500004 16711422
-0.15990001 -0.20335715 0.58500004 16711422
-0.15878572 -0.20335715 0.58500004 16711422
-0.15767144 -0.20335715 0.58500004 16711422
-0.15628955 -0.20300955 0.58400005 16711422
-0.15517716 -0.20300955 0.58400005 16711422
-0.15406477 -0.20300955 0.58400005 16711422
-0.1529524 -0.20300955 0.58400005 16711422
-0.14652859 -0.20335715 0.58500004 16711422
-0.14516573 -0.20300955 0.58400005 16711422
-0.14405334 -0.20300955 0.58400005 16711422
-0.14294097 -0.20300955 0.58400005 16711422
-0.13159144 -0.2026619 0.583 16711422
-0.13025714 -0.20231429 0.58200002 16711422
-0.12914857 -0.20231429 0.58200002 16711422
-0.12782001 -0.20196669 0.58100003 16711422
-0.12671334 -0.20196669 0.58100003 16711422
-0.12560667 -0.20196669 0.58100003 16711422
-0.12450001 -0.20196669 0.58100003 16711422
-0.11102858 -0.20161906 0.58000004 16711422
-0.10992382 -0.20161906 0.58000004 16711422
0.10469143 -0.19397144 0.55800003 16711422
0.10575429 -0.19397144 0.55800003 16711422
0.10681715 -0.19397144 0.55800003 16711422
0.10788 -0.19397144 0.55800003 16711422
0.10874762 -0.19362381 0.55700004 16711422
0.10980858 -0.19362381 0.55700004 16711422
0.1265562 -0.19327621 0.55600005 16711422
0.12761526 -0.19327621 0.55600005 16711422
0.14244191 -0.19327621 0.55600005 16711422
0.15642001 -0.19223335 0.55300003 16711422
0.15747334 -0.19223335 0.55300003 16711422
0.15852667 -0.19223335 0.55300003 16711422
0.15958001 -0.19223335 0.55300003 16711422
0.16034287 -0.19188572 0.55200005 16711422
0.16168667 -0.19223335 0.55300003 16711422
0.16274001 -0.19223335 0.55300003 16711422
0.16349715 -0.19188572 0.55200005 16711422
0.16454859 -0.19188572 0.55200005 16711422
0.16560002 -0.19188572 0.55200005 16711422
0.16665143 -0.19188572 0.55200005 16711422
0.16770287 -0.19188572 0.55200005 16711422
0.16875429 -0.19188572 0.55200005 16711422
0.16980574 -0.19188572 0.55200005 16711422
0.17085715 -0.19188572 0.55200005 16711422
0.17159714 -0.1915381 0.551 16711422
0.17264667 -0.1915381 0.551 16711422
0.18247715 -0.19084287 0.54900002 16711422
0.18352287 -0.19084287 0.54900002 16711422
0.18456858 -0.19084287 0.54900002 16711422
0.18561429 -0.19084287 0.54900002 16711422
0.18666001 -0.19084287 0.54900002 16711422
0.18770571 -0.19084287 0.54900002 16711422
0.18875143 -0.19084287 0.54900002 16711422
0.19014287 -0.19119048 0.55000001 16711422
0.19084287 -0.19084287 0.54900002 16711422
0.19188857 -0.19084287 0.54900002 16711422
0.19293429 -0.19084287 0.54900002 16711422
0.19398001 -0.19084287 0.54900002 16711422
0.19502573 -0.19084287 0.54900002 16711422
0.19607145 -0.19084287 0.54900002 16711422
0.19675811 -0.19049525 0.54800004 16711422
0.19780192 -0.19049525 0.54800004 16711422
0.19884571 -0.19049525 0.54800004 16711422
0.21306954 -0.19014762 0.54700005 16711422
0.21372001 -0.18980001 0.546 16711422
0.21515335 -0.19014762 0.54700005 16711422
0.21619526 -0.19014762 0.54700005 16711422
0.21684 -0.18980001 0.546 14744574
0.21788 -0.18980001 0.546 12752309
0.21891999 -0.18980001 0.546 8927597
0.22036289 -0.19014762 0.54700005 5136511
0.221 -0.18980001 0.546 5795217
-0.22156666 -0.20570001 0.59500003 7698349
-0.2151743 -0.20500858 0.59300005 11517657
-0.21404478 -0.20500858 0.59300005 13034483
-0.21291526 -0.20500858 0.59300005 14604528
-0.21142857 -0.20466284 0.59200001 14671341
-0.21030095 -0.20466284 0.59200001 14737392
-0.20882 -0.20431715 0.59100002 15593458
-0.20769429 -0.20431715 0.59100002 16512756
-0.20586953 -0.20362574 0.58900005 16514806
-0.20474763 -0.20362574 0.58900005 16513779
-0.19902475 -0.20466284 0.59200001 16711412
-0.19789715 -0.20466284 0.59200001 16711422
-0.19643715 -0.20431715 0.59100002 16711422
-0.19531144 -0.20431715 0.59100002 16711422
-0.19418572 -0.20431715 0.59100002 16711422
-0.19306001 -0.20431715 0.59100002 16711422
-0.19160953 -0.20397145 0.59000003 16711422
-0.19048572 -0.20397145 0.59000003 16711422
-0.18343143 -0.20362574 0.58900005 16711422
-0.18261907 -0.20397145 0.59000003 16711422
-0.18118763 -0.20362574 0.58900005 16711422
-0.18006572 -0.20362574 0.58900005 16711422
-0.17864001 -0.20328 0.588 16711422
-0.17782192 -0.20362574 0.58900005 16711422
-0.17670001 -0.20362574 0.58900005 16711422
-0.1755781 -0.20362574 0.58900005 16711422
-0.17386381 -0.20293429 0.58700001 16711422
-0.17274572 -0.20293429 0.58700001 16711422
-0.17162761 -0.20293429 0.58700001 16711422
-0.17050953 -0.20293429 0.58700001 16711422
-0.16968 -0.20328 0.588 16711422
-0.16827333 -0.20293429 0.58700001 16711422
-0.16715524 -0.20293429 0.58700001 16711422
-0.16603714 -0.20293429 0.58700001 16711422
-0.16491905 -0.20293429 0.58700001 16711422
-0.16380095 -0.20293429 0.58700001 16711422
-0.16268286 -0.20293429 0.58700001 16711422
-0.1610143 -0.20224287 0.58500004 16711422
-0.15990001 -0.20224287 0.58500004 16711422
-0.15878572 -0.20224287 0.58500004 16711422
-0.15767144 -0.20224287 0.58500004 16711422
-0.15655716 -0.20224287 0.58500004 16711422
-0.15517716 -0.20189716 0.58400005 16711422
-0.15406477 -0.20189716 0.58400005 16711422
-0.1529524 -0.20189716 0.58400005 16711422
-0.15184 -0.20189716 0.58400005 16711422
-0.1462781 -0.20189716 0.58400005 16711422
-0.14516573 -0.20189716 0.58400005 16711422
-0.14380667 -0.20155142 0.583 16711422
-0.14294097 -0.20189716 0.58400005 16711422
-0.13626668 -0.20189716 0.58400005 16711422
-0.12914857 -0.20120572 0.58200002 16711422
-0.12782001 -0.20086001 0.58100003 16711422
-0.12671334 -0.20086001 0.58100003 16711422
-0.12560667 -0.20086001 0.58100003 16711422
-0.12450001 -0.20086001 0.58100003 16711422
-0.12339333 -0.20086001 0.58100003 16711422
-0.1220762 -0.20051429 0.58000004 16711422
-0.12097144 -0.20051429 0.58000004 16711422
-0.10992382 -0.20051429 0.58000004 16711422
0.10768667 -0.19256286 0.55700004 16711422
0.10874762 -0.19256286 0.55700004 16711422
0.10980858 -0.19256286 0.55700004 16711422
0.11086953 -0.19256286 0.55700004 16711422
0.14244191 -0.19221716 0.55600005 16711422
0.14958571 -0.19187142 0.55500001 16711422
0.15142667 -0.19152571 0.55400002 16711422
0.1524819 -0.19152571 0.55400002 16711422
0.15747334 -0.19118001 0.55300003 16711422
0.15852667 -0.19118001 0.55300003 16711422
0.15929143 -0.1908343 0.55200005 16711422
0.16034287 -0.1908343 0.55200005 16711422
0.1613943 -0.1908343 0.55200005 16711422
0.16244572 -0.1908343 0.55200005 16711422
0.16349715 -0.1908343 0.55200005 16711422
0.16454859 -0.1908343 0.55200005 16711422
0.16560002 -0.1908343 0.55200005 16711422
0.16665143 -0.1908343 0.55200005 16711422
0.16770287 -0.1908343 0.55200005 16711422
0.16875429 -0.1908343 0.55200005 16711422
0.1694981 -0.19048858 0.551 16711422
0.17054762 -0.19048858 0.551 16711422
0.17128572 -0.19014287 0.55000001 16711422
0.17233333 -0.19014287 0.55000001 16711422
0.18071428 -0.19014287 0.55000001 16711422
0.18143143 -0.18979715 0.54900002 16711422
0.18247715 -0.18979715 0.54900002 16711422
0.18352287 -0.18979715 0.54900002 16711422
0.18456858 -0.18979715 0.54900002 16711422
0.18561429 -0.18979715 0.54900002 16711422
0.18666001 -0.18979715 0.54900002 16711422
0.18770571 -0.18979715 0.54900002 16711422
0.18875143 -0.18979715 0.54900002 16711422
0.19014287 -0.19014287 0.55000001 16711422
0.19084287 -0.18979715 0.54900002 16711422
0.19188857 -0.18979715 0.54900002 16711422
0.19293429 -0.18979715 0.54900002 16711422
0.19398001 -0.18979715 0.54900002 16711422
0.19502573 -0.18979715 0.54900002 16711422
0.19607145 -0.18979715 0.54900002 16711422
0.19675811 -0.18945144 0.54800004 16711422
0.19780192 -0.18945144 0.54800004 16711422
0.19848287 -0.18910573 0.54700005 16711422
0.19988954 -0.18945144 0.54800004 16711422
0.20339143 -0.18979715 0.54900002 16711422
0.20406479 -0.18945144 0.54800004 16711422
0.20510858 -0.18945144 0.54800004 16711422
0.20615239 -0.18945144 0.54800004 16711422
0.20719621 -0.18945144 0.54800004 16711422
0.20824 -0.18945144 0.54800004 16711422
0.20928383 -0.18945144 0.54800004 16711422
0.21032763 -0.18945144 0.54800004 16711422
0.21098574 -0.18910573 0.54700005 16711422
0.21202762 -0.18910573 0.54700005 16711422
0.21306954 -0.18910573 0.54700005 16711422
0.21411145 -0.18910573 0.54700005 16711422
0.21476001 -0.18876 0.546 16711422
0.21540476 -0.18841429 0.54500002 16711419
0.21644285 -0.18841429 0.54500002 14350584
0.21788 -0.18876 0.546 12026037
0.21891999 -0.18876 0.546 8596083
0.21996 -0.18876 0.546 5267585
0.221 -0.18876 0.546 5729680
-0.22156666 -0.20456667 0.59500003 7567533
-0.2151743 -0.20387906 0.59300005 11192025
-0.21404478 -0.20387906 0.59300005 12903156
-0.21291526 -0.20387906 0.59300005 14538993
-0.21142857 -0.20353524 0.59200001 14473454
-0.21030095 -0.20353524 0.59200001 14346227
-0.20917334 -0.20353524 0.59200001 15396857
-0.20804571 -0.20353524 0.59200001 16449275
-0.20621906 -0.20284761 0.59000003 16383742
-0.20509525 -0.20284761 0.59000003 16383738
-0.19902475 -0.20353524 0.59200001 16449268
-0.19789715 -0.20353524 0.59200001 16580350
-0.19676952 -0.20353524 0.59200001 16711422
-0.19564191 -0.20353524 0.59200001 16711422
-0.19451429 -0.20353524 0.59200001 16711422
-0.19306001 -0.20319144 0.59100002 16711422
-0.19193429 -0.20319144 0.59100002 16711422
-0.19080858 -0.20319144 0.59100002 16711422
-0.18455335 -0.20250382 0.58900005 16711422
-0.18343143 -0.20250382 0.58900005 16711422
-0.18230954 -0.20250382 0.58900005 16711422
-0.18088 -0.20216 0.588 16711422
-0.17975999 -0.20216 0.588 16711422
-0.17864001 -0.20216 0.588 16711422
-0.17782192 -0.20250382 0.58900005 16711422
-0.17670001 -0.20250382 0.58900005 16711422
-0.17528 -0.20216 0.588 16711422
-0.17415999 -0.20216 0.588 16711422
-0.17304 -0.20216 0.588 16711422
-0.17192 -0.20216 0.588 16711422
-0.1708 -0.20216 0.588 16711422
-0.16968 -0.20216 0.588 16711422
-0.16856 -0.20216 0.588 16711422
-0.16715524 -0.20181619 0.58700001 16711422
-0.16603714 -0.20181619 0.58700001 16711422
-0.16491905 -0.20181619 0.58700001 16711422
-0.16380095 -0.20181619 0.58700001 16711422
-0.16240571 -0.20147239 0.58600003 16711422
-0.1610143 -0.20112859 0.58500004 16711422
-0.15990001 -0.20112859 0.58500004 16711422
-0.15878572 -0.20112859 0.58500004 16711422
-0.15767144 -0.20112859 0.58500004 16711422
-0.15655716 -0.20112859 0.58500004 16711422
-0.15517716 -0.20078477 0.58400005 16711422
-0.15406477 -0.20078477 0.58400005 16711422
-0.1529524 -0.20078477 0.58400005 16711422
-0.15184 -0.20078477 0.58400005 16711422
-0.15072763 -0.20078477 0.58400005 16711422
-0.14764287 -0.20112859 0.58500004 16711422
-0.1462781 -0.20078477 0.58400005 16711422
-0.14516573 -0.20078477 0.58400005 16711422
-0.14405334 -0.20078477 0.58400005 16711422
-0.14294097 -0.20078477 0.58400005 16711422
-0.12937048 -0.20044094 0.583 16711422
-0.12804 -0.20009714 0.58200002 16711422
-0.12671334 -0.19975334 0.58100003 16711422
-0.12560667 -0.19975334 0.58100003 16711422
-0.12471429 -0.20009714 0.58200002 16711422
-0.12339333 -0.19975334 0.58100003 16711422
-0.12228667 -0.19975334 0.58100003 16711422
0.14138287 -0.19115812 0.55600005 16711422
0.14244191 -0.19115812 0.55600005 16711422
0.14324285 -0.19081429 0.55500001 16711422
0.1443 -0.19081429 0.55500001 16711422
0.15115334 -0.19012667 0.55300003 16711422
0.1524819 -0.19047047 0.55400002 16711422
0.15326001 -0.19012667 0.55300003 16711422
0.15431334 -0.19012667 0.55300003 16711422
0.15536667 -0.19012667 0.55300003 16711422
0.15642001 -0.19012667 0.55300003 16711422
0.15747334 -0.19012667 0.55300003 16711422
0.15852667 -0.19012667 0.55300003 16711422
0.15929143 -0.18978287 0.55200005 16711422
0.16005237 -0.18943904 0.551 16711422
0.1613943 -0.18978287 0.55200005 16711422
0.16274001 -0.19012667 0.55300003 16711422
0.16379334 -0.19012667 0.55300003 16711422
0.16425048 -0.18943904 0.551 16711422
0.1653 -0.18943904 0.551 16711422
0.16634952 -0.18943904 0.551 16711422
0.16739905 -0.18943904 0.551 16711422
0.16844857 -0.18943904 0.551 16711422
0.1694981 -0.18943904 0.551 16711422
0.17054762 -0.18943904 0.551 16711422
0.17128572 -0.18909524 0.55000001 16711422
0.17966667 -0.18909524 0.55000001 16711422
0.18038572 -0.18875143 0.54900002 16711422
0.18143143 -0.18875143 0.54900002 16711422
0.18280952 -0.18909524 0.55000001 16711422
0.18352287 -0.18875143 0.54900002 16711422
0.18456858 -0.18875143 0.54900002 16711422
0.1852762 -0.18840763 0.54800004 16711422
0.18632001 -0.18840763 0.54800004 16711422
0.18736382 -0.18840763 0.54800004 16711422
0.18840763 -0.18840763 0.54800004 16711422
0.18945144 -0.18840763 0.54800004 16711422
0.19084287 -0.18875143 0.54900002 16711422
0.19153906 -0.18840763 0.54800004 16711422
0.19258288 -0.18840763 0.54800004 16711422
0.19362667 -0.18840763 0.54800004 16711422
0.19467048 -0.18840763 0.54800004 16711422
0.19571429 -0.18840763 0.54800004 16711422
0.19675811 -0.18840763 0.54800004 16711422
0.19744097 -0.18806383 0.54700005 16711422
0.19848287 -0.18806383 0.54700005 16711422
0.20234573 -0.18875143 0.54900002 16711422
0.20339143 -0.18875143 0.54900002 16711422
0.20443715 -0.18875143 0.54900002 16711422
0.20510858 -0.18840763 0.54800004 16711422
0.20615239 -0.18840763 0.54800004 16711422
0.20719621 -0.18840763 0.54800004 16711422
0.20824 -0.18840763 0.54800004 16711422
0.20928383 -0.18840763 0.54800004 16711422
0.21032763 -0.18840763 0.54800004 16711422
0.21098574 -0.18806383 0.54700005 16711422
0.21202762 -0.18806383 0.54700005 16711422
0.21306954 -0.18806383 0.54700005 16711422
0.21411145 -0.18806383 0.54700005 16711422
0.21515335 -0.18806383 0.54700005 16711422
0.21579999 -0.18772 0.546 16711416
0.21684 -0.18772 0.546 13562611
0.21788 -0.18772 0.546 10448054
0.21891999 -0.18772 0.546 8021625
-0.21930002 -0.20343333 0.59500003 6519977
-0.21816668 -0.20343333 0.59500003 5794217
-0.2151743 -0.20274955 0.59300005 10926800
-0.21404478 -0.20274955 0.59300005 12706294
-0.2125562 -0.20240761 0.59200001 14538736
-0.21142857 -0.20240761 0.59200001 14275563
-0.21030095 -0.20240761 0.59200001 14015985
-0.20917334 -0.20240761 0.59200001 15200502
-0.20804571 -0.20240761 0.59200001 16381944
-0.20656857 -0.20206572 0.59100002 16318202
-0.20544286 -0.20206572 0.59100002 16316150
-0.19902475 -0.20240761 0.59200001 16184053
-0.19789715 -0.20240761 0.59200001 16449278
-0.19676952 -0.20240761 0.59200001 16711422
-0.19564191 -0.20240761 0.59200001 16711422
-0.19451429 -0.20240761 0.59200001 16711422
-0.19306001 -0.20206572 0.59100002 16711422
-0.19193429 -0.20206572 0.59100002 16711422
-0.19080858 -0.20206572 0.59100002 16711422
-0.18968286 -0.20206572 0.59100002 16711422
-0.18455335 -0.20138192 0.58900005 16711422
-0.18343143 -0.20138192 0.58900005 16711422
-0.18261907 -0.20172381 0.59000003 16711422
-0.18118763 -0.20138192 0.58900005 16711422
-0.18006572 -0.20138192 0.58900005 16711422
-0.17894383 -0.20138192 0.58900005 16711422
-0.17782192 -0.20138192 0.58900005 16711422
-0.177 -0.20172381 0.59000003 16711422
-0.1755781 -0.20138192 0.58900005 16711422
-0.17415999 -0.20104 0.588 16711422
-0.17304 -0.20104 0.588 16711422
-0.17221239 -0.20138192 0.58900005 16711422
-0.1708 -0.20104 0.588 16711422
-0.16968 -0.20104 0.588 16711422
-0.16856 -0.20104 0.588 16711422
-0.16744 -0.20104 0.588 16711422
-0.16632 -0.20104 0.588 16711422
-0.16491905 -0.20069809 0.58700001 16711422
-0.16380095 -0.20069809 0.58700001 16711422
-0.16240571 -0.2003562 0.58600003 16711422
-0.16128953 -0.2003562 0.58600003 16711422
-0.15990001 -0.20001429 0.58500004 16711422
-0.15878572 -0.20001429 0.58500004 16711422
-0.15767144 -0.20001429 0.58500004 16711422
-0.15655716 -0.20001429 0.58500004 16711422
-0.15517716 -0.1996724 0.58400005 16711422
-0.15406477 -0.1996724 0.58400005 16711422
-0.1529524 -0.1996724 0.58400005 16711422
-0.15184 -0.1996724 0.58400005 16711422
-0.15072763 -0.1996724 0.58400005 16711422
-0.14961524 -0.1996724 0.58400005 16711422
-0.14875714 -0.20001429 0.58500004 16711422
-0.14764287 -0.20001429 0.58500004 16711422
-0.1462781 -0.1996724 0.58400005 16711422
-0.14516573 -0.1996724 0.58400005 16711422
-0.14405334 -0.1996724 0.58400005 16711422
-0.13515431 -0.1996724 0.58400005 16711422
-0.12937048 -0.19933046 0.583 16711422
-0.12804 -0.19898857 0.58200002 16711422
-0.12693143 -0.19898857 0.58200002 16711422
-0.12582286 -0.19898857 0.58200002 16711422
-0.12471429 -0.19898857 0.58200002 16711422
-0.12360572 -0.19898857 0.58200002 16711422
-0.12249715 -0.19898857 0.58200002 16711422
-0.12118001 -0.19864668 0.58100003 16711422
0.14138287 -0.19009906 0.55600005 16711422
0.14244191 -0.19009906 0.55600005 16711422
0.14324285 -0.18975714 0.55500001 16711422
0.1443 -0.18975714 0.55500001 16711422
0.14641428 -0.18975714 0.55500001 16711422
0.14720573 -0.18941523 0.55400002 16711422
0.14826097 -0.18941523 0.55400002 16711422
0.14931621 -0.18941523 0.55400002 16711422
0.15010001 -0.18907334 0.55300003 16711422
0.15115334 -0.18907334 0.55300003 16711422
0.15220667 -0.18907334 0.55300003 16711422
0.15326001 -0.18907334 0.55300003 16711422
0.15431334 -0.18907334 0.55300003 16711422
0.15536667 -0.18907334 0.55300003 16711422
0.15642001 -0.18907334 0.55300003 16711422
0.15718859 -0.18873145 0.55200005 16711422
0.15824001 -0.18873145 0.55200005 16711422
0.15929143 -0.18873145 0.55200005 16711422
0.16005237 -0.18838952 0.551 16711422
0.16349715 -0.18873145 0.55200005 16711422
0.16425048 -0.18838952 0.551 16711422
0.1653 -0.18838952 0.551 16711422
0.16634952 -0.18838952 0.551 16711422
0.16739905 -0.18838952 0.551 16711422
0.16844857 -0.18838952 0.551 16711422
0.16919048 -0.18804762 0.55000001 16711422
0.17054762 -0.18838952 0.551 16711422
0.17159714 -0.18838952 0.551 16711422
0.17861904 -0.18804762 0.55000001 16711422
0.17934 -0.18770571 0.54900002 16711422
0.18038572 -0.18770571 0.54900002 16711422
0.18110095 -0.18736382 0.54800004 16711422
0.18214478 -0.18736382 0.54800004 16711422
0.18318857 -0.18736382 0.54800004 16711422
0.1842324 -0.18736382 0.54800004 16711422
0.1852762 -0.18736382 0.54800004 16711422
0.18632001 -0.18736382 0.54800004 16711422
0.18736382 -0.18736382 0.54800004 16711422
0.18840763 -0.18736382 0.54800004 16711422
0.18945144 -0.18736382 0.54800004 16711422
0.19049525 -0.18736382 0.54800004 16711422
0.19153906 -0.18736382 0.54800004 16711422
0.19258288 -0.18736382 0.54800004 16711422
0.19362667 -0.18736382 0.54800004 16711422
0.19467048 -0.18736382 0.54800004 16711422
0.19535716 -0.18702191 0.54700005 16711422
0.19639906 -0.18702191 0.54700005 16711422
0.19708 -0.18668 0.546 16711422
0.19812 -0.18668 0.546 16711422
0.20302096 -0.18736382 0.54800004 16711422
0.20406479 -0.18736382 0.54800004 16711422
0.20510858 -0.18736382 0.54800004 16711422
0.20615239 -0.18736382 0.54800004 16711422
0.20719621 -0.18736382 0.54800004 16711422
0.20824 -0.18736382 0.54800004 16711422
0.20928383 -0.18736382 0.54800004 16711422
0.21032763 -0.18736382 0.54800004 16711422
0.21098574 -0.18702191 0.54700005 16711422
0.21202762 -0.18702191 0.54700005 16711422
0.21306954 -0.18702191 0.54700005 16711422
0.21372001 -0.18668 0.546 16711422
0.21515335 -0.18702191 0.54700005 16711422
0.21540476 -0.1863381 0.54500002 16711410
0.21644285 -0.1863381 0.54500002 12774631
0.21668287 -0.1856543 0.54300004 8861360
0.21811812 -0.18599619 0.54400003 7355770
0.2191543 -0.18599619 0.54400003 5924740
0.22019048 -0.18599619 0.54400003 5991311
0.22082002 -0.1856543 0.54300004 6055820
0.2218543 -0.1856543 0.54300004 5858698
-0.21816668 -0.20230001 0.59500003 6187169
-0.21703334 -0.20230001 0.59500003 7886742
-0.2151743 -0.20162001 0.59300005 9678791
-0.21404478 -0.20162001 0.59300005 11786232
-0.21291526 -0.20162001 0.59300005 13948656
-0.21178573 -0.20162001 0.59300005 13882857
-0.21030095 -0.20128001 0.59200001 13882606
-0.20917334 -0.20128001 0.59200001 14938100
-0.20804571 -0.20128001 0.59200001 15986421
-0.20656857 -0.20094001 0.59100002 15920886
-0.20544286 -0.20094001 0.59100002 15855345
-0.19676952 -0.20128001 0.59200001 16711422
-0.19564191 -0.20128001 0.59200001 16711422
-0.19451429 -0.20128001 0.59200001 16711422
-0.19306001 -0.20094001 0.59100002 16711422
-0.19193429 -0.20094001 0.59100002 16711422
-0.19080858 -0.20094001 0.59100002 16711422
-0.18968286 -0.20094001 0.59100002 16711422
-0.18455335 -0.20026001 0.58900005 16711422
-0.18343143 -0.20026001 0.58900005 16711422
-0.18261907 -0.2006 0.59000003 16711422
-0.18118763 -0.20026001 0.58900005 16711422
-0.18006572 -0.20026001 0.58900005 16711422
-0.17894383 -0.20026001 0.58900005 16711422
-0.17782192 -0.20026001 0.58900005 16711422
-0.177 -0.2006 0.59000003 16711422
-0.1758762 -0.2006 0.59000003 16711422
-0.17445621 -0.20026001 0.58900005 16711422
-0.17333429 -0.20026001 0.58900005 16711422
-0.17221239 -0.20026001 0.58900005 16711422
-0.1710905 -0.20026001 0.58900005 16711422
-0.16968 -0.19992 0.588 16711422
-0.16856 -0.19992 0.588 16711422
-0.16744 -0.19992 0.588 16711422
-0.16632 -0.19992 0.588 16711422
-0.16520001 -0.19992 0.588 16711422
-0.16380095 -0.19958 0.58700001 16711422
-0.16268286 -0.19958 0.58700001 16711422
-0.16156477 -0.19958 0.58700001 16711422
-0.16044667 -0.19958 0.58700001 16711422
-0.15905716 -0.19924001 0.58600003 16711422
-0.15794097 -0.19924001 0.58600003 16711422
-0.15682477 -0.19924001 0.58600003 16711422
-0.15570857 -0.19924001 0.58600003 16711422
-0.15459238 -0.19924001 0.58600003 16711422
-0.15347619 -0.19924001 0.58600003 16711422
-0.15236001 -0.19924001 0.58600003 16711422
-0.15098572 -0.19890001 0.58500004 16711422
-0.14987144 -0.19890001 0.58500004 16711422
-0.14901143 -0.19924001 0.58600003 16711422
-0.14764287 -0.19890001 0.58500004 16711422
-0.14652859 -0.19890001 0.58500004 16711422
-0.14541429 -0.19890001 0.58500004 16711422
