# .PCD v.7 - Point Cloud Data file format
FIELDS x y z rgb imX imY
SIZE 4 4 4 4 4 4
TYPE F F F F F F
COUNT 1 1 1 1 1 1
WIDTH 834
HEIGHT 1
VIEWPOINT 0 0 0 1 0 0 0
POINTS 834
DATA ascii
0.068744689 0.676 -0.041483864 1.40111e-38 378 275
0.069929942 0.676 -0.041483864 1.3642317e-38 379 275
0.071430802 0.67900002 -0.041667968 1.3365024e-38 380 275
0.072942168 0.68199998 -0.041852064 1.2996242e-38 381 275
0.074137948 0.68199998 -0.041852064 1.2628907e-38 382 275
0.075444184 0.68300003 -0.041913435 1.2444157e-38 383 275
0.076753922 0.68400002 -0.041974798 1.2260847e-38 384 275
0.078181133 0.68599999 -0.042097531 1.2168652e-38 385 275
0.079499632 0.68699998 -0.042158898 1.2168299e-38 386 275
0.080704175 0.68699998 -0.042158898 1.2168299e-38 387 275
0.082027942 0.68800002 -0.042220265 1.1800983e-38 388 275
0.083597176 0.69099998 -0.042404365 1.2814776e-38 389 275
0.085176937 0.69400001 -0.042588469 1.3737852e-38 390 275
-0.01020966 0.64700001 -0.04083864 1.7326552e-38 311 276
-0.0090752533 0.64700001 -0.04083864 1.760348e-38 312 276
-0.0079408465 0.64700001 -0.04083864 1.7880427e-38 313 276
-0.0068169599 0.648 -0.040901758 1.7881128e-38 314 276
-0.0056807999 0.648 -0.040901758 1.7881128e-38 315 276
-0.00454464 0.648 -0.040901758 1.7973297e-38 316 276
-0.00340848 0.648 -0.040901758 1.7973297e-38 317 276
-0.0022758266 0.64899999 -0.040964879 1.8158033e-38 318 276
-0.0011379133 0.64899999 -0.040964879 1.8158033e-38 319 276
0 0.64899999 -0.040964879 1.8433894e-38 320 276
0.0011379133 0.64899999 -0.040964879 1.8341696e-38 321 276
0.0022758266 0.64899999 -0.040964879 1.8617206e-38 322 276
0.0034189997 0.64999998 -0.041027997 1.8617206e-38 323 276
0.0045797066 0.653 -0.041217357 1.8616853e-38 324 276
0.0057246331 0.653 -0.041217357 1.8616853e-38 325 276
0.0068590399 0.65200001 -0.041154239 1.8616853e-38 326 276
0.0080022132 0.65200001 -0.041154239 1.8616853e-38 327 276
0.0091453865 0.65200001 -0.041154239 1.8526092e-38 328 276
0.01028856 0.65200001 -0.041154239 1.8433538e-38 329 276
0.011431733 0.65200001 -0.041154239 1.8525739e-38 330 276
0.012574906 0.65200001 -0.041154239 1.8433543e-38 331 276
0.01371808 0.65200001 -0.041154239 1.8525386e-38 332 276
0.014906839 0.65399998 -0.041280478 1.8525386e-38 333 276
0.01605352 0.65399998 -0.041280478 1.8525386e-38 334 276
0.017200198 0.65399998 -0.041280478 1.843319e-38 335 276
0.01834688 0.65399998 -0.041280478 1.86165e-38 336 276
0.019493559 0.65399998 -0.041280478 1.8340271e-38 337 276
0.020640239 0.65399998 -0.041280478 1.8340624e-38 338 276
0.021786919 0.65399998 -0.041280478 1.8340624e-38 339 276
0.022933599 0.65399998 -0.041280478 1.8248073e-38 340 276
0.024080278 0.65399998 -0.041280478 1.8248073e-38 341 276
0.025226958 0.65399998 -0.041280478 1.8248441e-38 342 276
0.026413966 0.65499997 -0.041343596 1.8248441e-38 343 276
0.027562398 0.65499997 -0.041343596 1.7972578e-38 344 276
0.028710833 0.65499997 -0.041343596 1.7972578e-38 345 276
0.02995044 0.65700001 -0.041469838 1.7788912e-38 346 276
0.031149717 0.65799999 -0.04153296 1.7788912e-38 347 276
0.03225432 0.65700001 -0.041469838 1.7697082e-38 348 276
0.033406258 0.65700001 -0.041469838 1.7604887e-38 349 276
0.034558199 0.65700001 -0.041469838 1.7697082e-38 350 276
0.035710141 0.65700001 -0.041469838 1.7604887e-38 351 276
0.036862079 0.65700001 -0.041469838 1.7697085e-38 352 276
0.038014017 0.65700001 -0.041469838 1.760489e-38 353 276
0.039165959 0.65700001 -0.041469838 1.7421221e-38 354 276
0.0403179 0.65700001 -0.041469838 1.7421221e-38 355 276
0.041469838 0.65700001 -0.041469838 1.7512344e-38 356 276
0.042686652 0.65799999 -0.04153296 1.7512344e-38 357 276
0.043906972 0.65899998 -0.041596077 1.7145363e-38 358 276
0.045199182 0.66100001 -0.04172232 1.7329394e-38 359 276
0.046358135 0.66100001 -0.04172232 1.7145729e-38 360 276
0.047588971 0.662 -0.041785441 1.7145729e-38 361 276
0.048823316 0.66299999 -0.041848559 1.6870221e-38 362 276
0.049985778 0.66299999 -0.041848559 1.6778025e-38 363 276
0.051148236 0.66299999 -0.041848559 1.6502162e-38 364 276
0.052389596 0.66399997 -0.041911677 1.631741e-38 365 276
0.053553808 0.66399997 -0.041911677 1.6225217e-38 366 276
0.054718021 0.66399997 -0.041911677 1.6225217e-38 367 276
0.055882234 0.66399997 -0.041911677 1.5765691e-38 368 276
0.057218276 0.66600001 -0.042037919 1.5673495e-38 369 276
0.058385998 0.66600001 -0.042037919 1.5581665e-38 370 276
0.0599114 0.67000002 -0.042290401 1.5397276e-38 371 276
0.061177302 0.671 -0.042353518 1.530508e-38 372 276
0.06235379 0.671 -0.042353518 1.5120687e-38 373 276
0.063530281 0.671 -0.042353518 1.5120322e-38 374 276
0.064803198 0.67199999 -0.042416636 1.4658983e-38 375 276
0.066177815 0.67400002 -0.042542879 1.4473517e-38 376 276
0.067359567 0.67400002 -0.042542879 1.4012898e-38 377 276
0.068643004 0.67500001 -0.042606 1.3459375e-38 378 276
0.069826499 0.67500001 -0.042606 1.3090232e-38 379 276
0.071430802 0.67900002 -0.042858478 1.2904402e-38 380 276
0.072728261 0.68000001 -0.042921599 1.2812206e-38 381 276
0.073920533 0.68000001 -0.042921599 1.244451e-38 382 276
0.075444184 0.68300003 -0.043110959 1.2168283e-38 383 276
0.076753922 0.68400002 -0.043174081 1.207645e-38 384 276
0.078181133 0.68599999 -0.043300316 1.207645e-38 385 276
0.079499632 0.68699998 -0.043363437 1.1892791e-38 386 276
0.080704175 0.68699998 -0.043363437 1.1984986e-38 387 276
0.082027942 0.68800002 -0.043426562 1.1708437e-38 388 276
0.083597176 0.69099998 -0.043615919 1.2814426e-38 389 276
-0.0170424 0.648 -0.042037919 1.7236565e-38 305 277
-0.015906241 0.648 -0.042037919 1.7786468e-38 306 277
-0.014770079 0.648 -0.042037919 1.7602076e-38 307 277
-0.013612879 0.64700001 -0.041973047 1.7694234e-38 308 277
-0.012478473 0.64700001 -0.041973047 1.7694234e-38 309 277
-0.011344067 0.64700001 -0.041973047 1.7511607e-38 310 277
-0.01020966 0.64700001 -0.041973047 1.7511607e-38 311 277
-0.0090752533 0.64700001 -0.041973047 1.7880013e-38 312 277
-0.0079408465 0.64700001 -0.041973047 1.8064403e-38 313 277
-0.0068169599 0.648 -0.042037919 1.8340992e-38 314 277
-0.0056807999 0.648 -0.042037919 1.8248795e-38 315 277
-0.00454464 0.648 -0.042037919 1.8340989e-38 316 277
-0.0034137398 0.64899999 -0.042102791 1.8340989e-38 317 277
-0.0022758266 0.64899999 -0.042102791 1.852466e-38 318 277
-0.0011379133 0.64899999 -0.042102791 1.8616855e-38 319 277
0 0.648 -0.042037919 1.8525739e-38 320 277
0.00113616 0.648 -0.042037919 1.8433543e-38 321 277
0.00227232 0.648 -0.042037919 1.8617209e-38 322 277
0.0034137398 0.64899999 -0.042102791 1.8524653e-38 323 277
0.0045586661 0.64999998 -0.042167664 1.8616486e-38 324 277
0.005698333 0.64999998 -0.042167664 1.8616486e-38 325 277
0.0068379994 0.64999998 -0.042167664 1.8616853e-38 326 277
0.0079776663 0.64999998 -0.042167664 1.8709048e-38 327 277
0.0091173323 0.64999998 -0.042167664 1.8524657e-38 328 277
0.010256999 0.64999998 -0.042167664 1.8616853e-38 329 277
0.011396666 0.64999998 -0.042167664 1.852466e-38 330 277
0.012536332 0.64999998 -0.042167664 1.852466e-38 331 277
0.013675999 0.64999998 -0.042167664 1.8524307e-38 332 277
0.014815666 0.64999998 -0.042167664 1.8524307e-38 333 277
0.015955333 0.64999998 -0.042167664 1.8340994e-38 334 277
0.017147599 0.65200001 -0.042297412 1.8340994e-38 335 277
0.018290773 0.65200001 -0.042297412 1.8615781e-38 336 277
0.019433947 0.65200001 -0.042297412 1.8523584e-38 337 277
0.02057712 0.65200001 -0.042297412 1.8156596e-38 338 277
0.021720294 0.65200001 -0.042297412 1.8156596e-38 339 277
0.022863466 0.65200001 -0.042297412 1.8064047e-38 340 277
0.024043459 0.653 -0.042362284 1.8064047e-38 341 277
0.025188386 0.653 -0.042362284 1.8063694e-38 342 277
0.026333313 0.653 -0.042362284 1.8156249e-38 343 277
0.027478239 0.653 -0.042362284 1.7880029e-38 344 277
0.028710833 0.65499997 -0.042492028 1.7880029e-38 345 277
0.029859263 0.65499997 -0.042492028 1.7605243e-38 346 277
0.031007698 0.65499997 -0.042492028 1.7605243e-38 347 277
0.03225432 0.65700001 -0.04262178 1.7604887e-38 348 277
0.033406258 0.65700001 -0.04262178 1.7604887e-38 349 277
0.034452997 0.65499997 -0.042492028 1.7421574e-38 350 277
0.03560143 0.65499997 -0.042492028 1.7421574e-38 351 277
0.036749862 0.65499997 -0.042492028 1.7330101e-38 352 277
0.037898298 0.65499997 -0.042492028 1.7330101e-38 353 277
0.039046731 0.65499997 -0.042492028 1.7329745e-38 354 277
0.040195163 0.65499997 -0.042492028 1.7329745e-38 355 277
0.041469838 0.65700001 -0.04262178 1.7145363e-38 356 277
0.04262178 0.65700001 -0.04262178 1.7329394e-38 357 277
0.043906972 0.65899998 -0.042751525 1.7145729e-38 358 277
0.045062415 0.65899998 -0.042751525 1.7237925e-38 359 277
0.046358135 0.66100001 -0.042881273 1.7054259e-38 360 277
0.047588971 0.662 -0.042946145 1.7054259e-38 361 277
0.048749682 0.662 -0.042946145 1.6686921e-38 362 277
0.049985778 0.66299999 -0.043011017 1.6594726e-38 363 277
0.051148236 0.66299999 -0.043011017 1.650253e-38 364 277
0.052389596 0.66399997 -0.043075889 1.6409976e-38 365 277
0.053553808 0.66399997 -0.043075889 1.6133749e-38 366 277
0.054718021 0.66399997 -0.043075889 1.6133749e-38 367 277
0.055882234 0.66399997 -0.043075889 1.5766057e-38 368 277
0.057218276 0.66600001 -0.043205637 1.5766057e-38 369 277
0.058385998 0.66600001 -0.043205637 1.5490196e-38 370 277
0.05973256 0.66799998 -0.043335386 1.5305804e-38 371 277
0.061086133 0.67000002 -0.043465134 1.521325e-38 372 277
0.06235379 0.671 -0.043530006 1.4937022e-38 373 277
0.063530281 0.671 -0.043530006 1.4843382e-38 374 277
0.064803198 0.67199999 -0.043594878 1.4382403e-38 375 277
0.06598144 0.67199999 -0.043594878 1.410474e-38 376 277
0.067359567 0.67400002 -0.043724626 1.3551568e-38 377 277
0.068643004 0.67500001 -0.043789499 1.3273905e-38 378 277
0.069826499 0.67500001 -0.043789499 1.2628535e-38 379 277
0.071430802 0.67900002 -0.044048995 1.2444144e-38 380 277
0.072728261 0.68000001 -0.044113863 1.2351949e-38 381 277
0.073920533 0.68000001 -0.044113863 1.2168283e-38 382 277
0.075333714 0.68199998 -0.044243611 1.2168283e-38 383 277
0.076753922 0.68400002 -0.04437336 1.1892418e-38 384 277
0.078181133 0.68599999 -0.044503104 1.1892418e-38 385 277
0.079499632 0.68699998 -0.044567976 1.1616571e-38 386 277
0.080821648 0.68800002 -0.044632856 1.1709125e-38 387 277
0.082624078 0.69300002 -0.044957221 1.1707731e-38 388 277
0.083839141 0.69300002 -0.044957221 1.2537492e-38 389 277
-0.024918374 0.64600003 -0.043040827 1.6959269e-38 298 278
-0.02371208 0.64399999 -0.042907573 1.6590487e-38 299 278
-0.022582933 0.64399999 -0.042907573 1.7234372e-38 300 278
-0.021453787 0.64399999 -0.042907573 1.6865591e-38 301 278
-0.02032464 0.64399999 -0.042907573 1.7050659e-38 302 278
-0.019284913 0.64700001 -0.043107454 1.7143215e-38 303 278
-0.018150507 0.64700001 -0.043107454 1.7602722e-38 304 278
-0.0170161 0.64700001 -0.043107454 1.7694919e-38 305 278
-0.015881693 0.64700001 -0.043107454 1.8061532e-38 306 278
-0.014747286 0.64700001 -0.043107454 1.8245925e-38 307 278
-0.013612879 0.64700001 -0.043107454 1.8155527e-38 308 278
-0.012478473 0.64700001 -0.043107454 1.8155527e-38 309 278
-0.011344067 0.64700001 -0.043107454 1.7880369e-38 310 278
-0.01020966 0.64700001 -0.043107454 1.8064401e-38 311 278
-0.0090752533 0.64700001 -0.043107454 1.8248782e-38 312 278
-0.0079408465 0.64700001 -0.043107454 1.8248782e-38 313 278
-0.0068169599 0.648 -0.043174081 1.8523937e-38 314 278
-0.0056807999 0.648 -0.043174081 1.8616134e-38 315 278
-0.00454464 0.648 -0.043174081 1.852466e-38 316 278
-0.00340848 0.648 -0.043174081 1.8616855e-38 317 278
-0.00227232 0.648 -0.043174081 1.8707979e-38 318 278
-0.00113616 0.648 -0.043174081 1.889201e-38 319 278
0 0.648 -0.043174081 1.8616505e-38 320 278
0.0011344067 0.64700001 -0.043107454 1.8616505e-38 321 278
0.0022688133 0.64700001 -0.043107454 1.86165e-38 322 278
0.0034032199 0.64700001 -0.043107454 1.86165e-38 323 278
0.0045376266 0.64700001 -0.043107454 1.852466e-38 324 278
0.0056720334 0.64700001 -0.043107454 1.852466e-38 325 278
0.0068064397 0.64700001 -0.043107454 1.852431e-38 326 278
0.0079408465 0.64700001 -0.043107454 1.852431e-38 327 278
0.0090892799 0.648 -0.043174081 1.852431e-38 328 278
0.010225439 0.648 -0.043174081 1.852431e-38 329 278
0.0113616 0.648 -0.043174081 1.8339921e-38 330 278
0.012478473 0.64700001 -0.043107454 1.8247725e-38 331 278
0.013612879 0.64700001 -0.043107454 1.8247372e-38 332 278
0.014770079 0.648 -0.043174081 1.8339568e-38 333 278
0.015930785 0.64899999 -0.043240704 1.8248088e-38 334 278
0.017068699 0.64899999 -0.043240704 1.8248088e-38 335 278
0.018234665 0.64999998 -0.04330733 1.8248079e-38 336 278
0.019374331 0.64999998 -0.04330733 1.8248079e-38 337 278
0.020513998 0.64999998 -0.04330733 1.7972931e-38 338 278
0.021653665 0.64999998 -0.04330733 1.7880735e-38 339 278
0.022793332 0.64999998 -0.04330733 1.7880738e-38 340 278
0.023932999 0.64999998 -0.04330733 1.7788184e-38 341 278
0.025072664 0.64999998 -0.04330733 1.7787833e-38 342 278
0.026292987 0.65200001 -0.043440588 1.7787833e-38 343 278
0.02743616 0.65200001 -0.043440588 1.7604524e-38 344 278
0.028579334 0.65200001 -0.043440588 1.7604524e-38 345 278
0.029813679 0.65399998 -0.043573838 1.7329382e-38 346 278
0.030960357 0.65399998 -0.043573838 1.7329382e-38 347 278
0.032156132 0.65499997 -0.043640465 1.7329747e-38 348 278
0.033304565 0.65499997 -0.043640465 1.7329747e-38 349 278
0.034452997 0.65499997 -0.043640465 1.7329745e-38 350 278
0.03560143 0.65499997 -0.043640465 1.7329745e-38 351 278
0.036749862 0.65499997 -0.043640465 1.7146432e-38 352 278
0.037898298 0.65499997 -0.043640465 1.7146432e-38 353 278
0.039046731 0.65499997 -0.043640465 1.714643e-38 354 278
0.040195163 0.65499997 -0.043640465 1.7054234e-38 355 278
0.041343596 0.65499997 -0.043640465 1.7053881e-38 356 278
0.04262178 0.65700001 -0.043773718 1.7146435e-38 357 278
0.043773718 0.65700001 -0.043773718 1.7054615e-38 358 278
0.044994038 0.65799999 -0.043840345 1.7238648e-38 359 278
0.046217863 0.65899998 -0.043906972 1.6779117e-38 360 278
0.047517084 0.66100001 -0.044040225 1.6779117e-38 361 278
0.048749682 0.662 -0.044106852 1.6687286e-38 362 278
0.049910385 0.662 -0.044106852 1.6687286e-38 363 278
0.051148236 0.66299999 -0.044173479 1.6411058e-38 364 278
0.052310698 0.66299999 -0.044173479 1.6318862e-38 365 278
0.053553808 0.66399997 -0.044240102 1.6134118e-38 366 278
0.054718021 0.66399997 -0.044240102 1.6041922e-38 367 278
0.055882234 0.66399997 -0.044240102 1.5582394e-38 368 278
0.057218276 0.66600001 -0.04437336 1.5582394e-38 369 278
0.058473662 0.667 -0.044439986 1.5213979e-38 370 278
0.059643134 0.667 -0.044439986 1.5029587e-38 371 278
0.061086133 0.67000002 -0.044639867 1.5212537e-38 372 278
0.06226087 0.67000002 -0.044639867 1.5027785e-38 373 278
0.063530281 0.671 -0.044706494 1.4474968e-38 374 278
0.064803198 0.67199999 -0.044773117 1.4013991e-38 375 278
0.06598144 0.67199999 -0.044773117 1.3644488e-38 376 278
0.067359567 0.67400002 -0.044906374 1.3091314e-38 377 278
0.068643004 0.67500001 -0.044972997 1.3272829e-38 378 278
0.069826499 0.67500001 -0.044972997 1.281185e-38 379 278
0.071430802 0.67900002 -0.045239504 1.2627103e-38 380 278
0.072728261 0.68000001 -0.045306131 1.2350875e-38 381 278
0.073920533 0.68000001 -0.045306131 1.2076086e-38 382 278
0.075333714 0.68199998 -0.045439381 1.198389e-38 383 278
0.076641709 0.68300003 -0.045506012 1.170839e-38 384 278
0.078181133 0.68599999 -0.045705888 1.170839e-38 385 278
0.079499632 0.68699998 -0.045772515 1.1249235e-38 386 278
0.080704175 0.68699998 -0.045772515 1.1341432e-38 387 278
0.081908718 0.68699998 -0.045772515 1.0880861e-38 388 278
-0.030581642 0.64600003 -0.044173479 1.6680181e-38 293 279
-0.029448988 0.64600003 -0.044173479 1.6864187e-38 294 279
-0.028228667 0.64399999 -0.044036716 1.6771991e-38 295 279
-0.027099518 0.64399999 -0.044036716 1.695564e-38 296 279
-0.025970373 0.64399999 -0.044036716 1.7047837e-38 297 279
-0.024841227 0.64399999 -0.044036716 1.6867016e-38 298 279
-0.023675259 0.64300001 -0.043968339 1.6867016e-38 299 279
-0.022547867 0.64300001 -0.043968339 1.7418723e-38 300 279
-0.021420473 0.64300001 -0.043968339 1.7418723e-38 301 279
-0.02032464 0.64399999 -0.044036716 1.7419061e-38 302 279
-0.019195493 0.64399999 -0.044036716 1.7511256e-38 303 279
-0.018066347 0.64399999 -0.044036716 1.7878937e-38 304 279
-0.0169372 0.64399999 -0.044036716 1.7971133e-38 305 279
-0.015808053 0.64399999 -0.044036716 1.8063316e-38 306 279
-0.014724494 0.64600003 -0.044173479 1.8063316e-38 307 279
-0.01359184 0.64600003 -0.044173479 1.8064032e-38 308 279
-0.012459187 0.64600003 -0.044173479 1.8156228e-38 309 279
-0.011326533 0.64600003 -0.044173479 1.8248426e-38 310 279
-0.01019388 0.64600003 -0.044173479 1.8248426e-38 311 279
-0.0090612266 0.64600003 -0.044173479 1.8340624e-38 312 279
-0.0079408465 0.64700001 -0.044241857 1.8340624e-38 313 279
-0.0068169599 0.648 -0.044310238 1.8616137e-38 314 279
-0.0056807999 0.648 -0.044310238 1.8708332e-38 315 279
-0.00454464 0.648 -0.044310238 1.8615783e-38 316 279
-0.0034032199 0.64700001 -0.044241857 1.8707979e-38 317 279
-0.0022688133 0.64700001 -0.044241857 1.8615783e-38 318 279
-0.00113616 0.648 -0.044310238 1.8615783e-38 319 279
0 0.64700001 -0.044241857 1.8524304e-38 320 279
0.0011344067 0.64700001 -0.044241857 1.8524304e-38 321 279
0.0022653067 0.64600003 -0.044173479 1.8523584e-38 322 279
0.00339796 0.64600003 -0.044173479 1.8523584e-38 323 279
0.0045306133 0.64600003 -0.044173479 1.8431035e-38 324 279
0.0056632664 0.64600003 -0.044173479 1.8431035e-38 325 279
0.00679592 0.64600003 -0.044173479 1.8522514e-38 326 279
0.0079285735 0.64600003 -0.044173479 1.8522514e-38 327 279
0.0090752533 0.64700001 -0.044241857 1.8431035e-38 328 279
0.01020966 0.64700001 -0.044241857 1.8431035e-38 329 279
0.011344067 0.64700001 -0.044241857 1.8430322e-38 330 279
0.012459187 0.64600003 -0.044173479 1.8337767e-38 331 279
0.01359184 0.64600003 -0.044173479 1.815553e-38 332 279
0.014724494 0.64600003 -0.044173479 1.815553e-38 333 279
0.015881693 0.64700001 -0.044241857 1.8155524e-38 334 279
0.0170161 0.64700001 -0.044241857 1.8248079e-38 335 279
0.01817856 0.648 -0.044310238 1.8155524e-38 336 279
0.019344525 0.64899999 -0.044378616 1.8155524e-38 337 279
0.02048244 0.64899999 -0.044378616 1.7788186e-38 338 279
0.021620352 0.64899999 -0.044378616 1.7880382e-38 339 279
0.022758266 0.64899999 -0.044378616 1.7695994e-38 340 279
0.023932999 0.64999998 -0.044446997 1.7695994e-38 341 279
0.025072664 0.64999998 -0.044446997 1.7419763e-38 342 279
0.026212333 0.64999998 -0.044446997 1.7419763e-38 343 279
0.027351998 0.64999998 -0.044446997 1.7052422e-38 344 279
0.028491667 0.64999998 -0.044446997 1.7052422e-38 345 279
0.029722504 0.65200001 -0.044583756 1.7052069e-38 346 279
0.03091302 0.653 -0.044652138 1.7236462e-38 347 279
0.03210704 0.65399998 -0.044720516 1.7328663e-38 348 279
0.033253718 0.65399998 -0.044720516 1.7328663e-38 349 279
0.034400396 0.65399998 -0.044720516 1.7145716e-38 350 279
0.03560143 0.65499997 -0.044788897 1.7145716e-38 351 279
0.036749862 0.65499997 -0.044788897 1.6962767e-38 352 279
0.037898298 0.65499997 -0.044788897 1.6962767e-38 353 279
0.039046731 0.65499997 -0.044788897 1.7055319e-38 354 279
0.040195163 0.65499997 -0.044788897 1.6962764e-38 355 279
0.041343596 0.65499997 -0.044788897 1.6779818e-38 356 279
0.042492028 0.65499997 -0.044788897 1.6779818e-38 357 279
0.043773718 0.65700001 -0.04492566 1.677947e-38 358 279
0.04492566 0.65700001 -0.04492566 1.6871667e-38 359 279
0.04614773 0.65799999 -0.044994038 1.6779484e-38 360 279
0.04737331 0.65899998 -0.045062415 1.6779484e-38 361 279
0.048528757 0.65899998 -0.045062415 1.6503623e-38 362 279
0.049834993 0.66100001 -0.045199182 1.6503623e-38 363 279
0.051071092 0.662 -0.04526756 1.6227758e-38 364 279
0.0522318 0.662 -0.04526756 1.6043367e-38 365 279
0.053473156 0.66299999 -0.045335937 1.5858975e-38 366 279
0.054718021 0.66399997 -0.045404319 1.576678e-38 367 279
0.055882234 0.66399997 -0.045404319 1.5398363e-38 368 279
0.057218276 0.66600001 -0.045541082 1.5122136e-38 369 279
0.058385998 0.66600001 -0.045541082 1.5212534e-38 370 279
0.059643134 0.667 -0.045609459 1.5028141e-38 371 279
0.060903784 0.66799998 -0.045677837 1.4658633e-38 372 279
0.06226087 0.67000002 -0.0458146 1.4658633e-38 373 279
0.063530281 0.671 -0.045882981 1.447352e-38 374 279
0.064803198 0.67199999 -0.045951359 1.3920346e-38 375 279
0.066177815 0.67400002 -0.046088122 1.3367894e-38 376 279
0.067359567 0.67400002 -0.046088122 1.3091667e-38 377 279
0.068643004 0.67500001 -0.0461565 1.2905121e-38 378 279
0.069826499 0.67500001 -0.0461565 1.253634e-38 379 279
0.071115203 0.676 -0.046224877 1.2350872e-38 380 279
0.072728261 0.68000001 -0.046498399 1.2350872e-38 381 279
0.073920533 0.68000001 -0.046498399 1.1983535e-38 382 279
0.075333714 0.68199998 -0.046635158 1.1983535e-38 383 279
0.076641709 0.68300003 -0.04670354 1.170732e-38 384 279
0.078181133 0.68599999 -0.046908677 1.170732e-38 385 279
0.079615362 0.68800002 -0.047045439 1.1247809e-38 386 279
0.080821648 0.68800002 -0.047045439 1.1155614e-38 387 279
-0.031567011 0.64300001 -0.045095734 1.6129098e-38 292 280
-0.030439619 0.64300001 -0.045095734 1.566812e-38 293 280
-0.029312227 0.64300001 -0.045095734 1.640276e-38 294 280
-0.028228667 0.64399999 -0.045165867 1.6310563e-38 295 280
-0.027057439 0.64300001 -0.045095734 1.6955905e-38 296 280
-0.025930047 0.64300001 -0.045095734 1.7140296e-38 297 280
-0.024841227 0.64399999 -0.045165867 1.7049902e-38 298 280
-0.02363844 0.64200002 -0.045025598 1.7510879e-38 299 280
-0.022512799 0.64200002 -0.045025598 1.7420127e-38 300 280
-0.021420473 0.64300001 -0.045095734 1.7420127e-38 301 280
-0.020293079 0.64300001 -0.045095734 1.7695269e-38 302 280
-0.019165685 0.64300001 -0.045095734 1.7787823e-38 303 280
-0.018066347 0.64399999 -0.045165867 1.8062966e-38 304 280
-0.0169372 0.64399999 -0.045165867 1.8062966e-38 305 280
-0.015808053 0.64399999 -0.045165867 1.8247344e-38 306 280
-0.014678906 0.64399999 -0.045165867 1.8247344e-38 307 280
-0.013549759 0.64399999 -0.045165867 1.8339543e-38 308 280
-0.012420613 0.64399999 -0.045165867 1.8339543e-38 309 280
-0.011326533 0.64600003 -0.045306131 1.8248076e-38 310 280
-0.01019388 0.64600003 -0.045306131 1.8340271e-38 311 280
-0.0090612266 0.64600003 -0.045306131 1.8340274e-38 312 280
-0.0079285735 0.64600003 -0.045306131 1.8524307e-38 313 280
-0.0068064397 0.64700001 -0.045376267 1.861543e-38 314 280
-0.0056720334 0.64700001 -0.045376267 1.861543e-38 315 280
-0.0045376266 0.64700001 -0.045376267 1.8615433e-38 316 280
-0.00339796 0.64600003 -0.045306131 1.8615433e-38 317 280
-0.0022582933 0.64399999 -0.045165867 1.8523954e-38 318 280
-0.0011291467 0.64399999 -0.045165867 1.8523954e-38 319 280
0 0.64399999 -0.045165867 1.8523233e-38 320 280
0.0011291467 0.64399999 -0.045165867 1.8523233e-38 321 280
0.0022582933 0.64399999 -0.045165867 1.8339921e-38 322 280
0.0033874398 0.64399999 -0.045165867 1.8339921e-38 323 280
0.0045165867 0.64399999 -0.045165867 1.8247369e-38 324 280
0.0056457333 0.64399999 -0.045165867 1.8155174e-38 325 280
0.0067748795 0.64399999 -0.045165867 1.7972583e-38 326 280
0.0079040267 0.64399999 -0.045165867 1.7880029e-38 327 280
0.0090612266 0.64600003 -0.045306131 1.815554e-38 328 280
0.01019388 0.64600003 -0.045306131 1.8063344e-38 329 280
0.011326533 0.64600003 -0.045306131 1.7880032e-38 330 280
0.012459187 0.64600003 -0.045306131 1.7880032e-38 331 280
0.01359184 0.64600003 -0.045306131 1.7604521e-38 332 280
0.014724494 0.64600003 -0.045306131 1.7696717e-38 333 280
0.015857147 0.64600003 -0.045306131 1.7604524e-38 334 280
0.0170161 0.64700001 -0.045376267 1.7696719e-38 335 280
0.018150507 0.64700001 -0.045376267 1.7696366e-38 336 280
0.019314719 0.648 -0.0454464 1.7604171e-38 337 280
0.020450879 0.648 -0.0454464 1.7603818e-38 338 280
0.021620352 0.64899999 -0.045516532 1.7511622e-38 339 280
0.022758266 0.64899999 -0.045516532 1.7236108e-38 340 280
0.023896178 0.64899999 -0.045516532 1.7143913e-38 341 280
0.025034092 0.64899999 -0.045516532 1.7052419e-38 342 280
0.026172007 0.64899999 -0.045516532 1.6960224e-38 343 280
0.027309919 0.64899999 -0.045516532 1.6592164e-38 344 280
0.028491667 0.64999998 -0.045586664 1.6592164e-38 345 280
0.029631332 0.64999998 -0.045586664 1.6408867e-38 346 280
0.030865679 0.65200001 -0.045726933 1.6685456e-38 347 280
0.032057945 0.653 -0.045797065 1.6593979e-38 348 280
0.033253718 0.65399998 -0.045867197 1.6686174e-38 349 280
0.034400396 0.65399998 -0.045867197 1.6778741e-38 350 280
0.035547078 0.65399998 -0.045867197 1.6778741e-38 351 280
0.036693759 0.65399998 -0.045867197 1.6687274e-38 352 280
0.037898298 0.65499997 -0.04593733 1.6687274e-38 353 280
0.039046731 0.65499997 -0.04593733 1.6687272e-38 354 280
0.040195163 0.65499997 -0.04593733 1.6687272e-38 355 280
0.041343596 0.65499997 -0.04593733 1.677947e-38 356 280
0.042492028 0.65499997 -0.04593733 1.6871667e-38 357 280
0.043640465 0.65499997 -0.04593733 1.6596169e-38 358 280
0.04492566 0.65700001 -0.046077598 1.6503973e-38 359 280
0.046077598 0.65700001 -0.046077598 1.6321033e-38 360 280
0.04722954 0.65700001 -0.046077598 1.6228478e-38 361 280
0.048455119 0.65799999 -0.04614773 1.6411796e-38 362 280
0.049834993 0.66100001 -0.046358135 1.6227763e-38 363 280
0.051071092 0.662 -0.046428263 1.6227408e-38 364 280
0.0522318 0.662 -0.046428263 1.5858625e-38 365 280
0.053473156 0.66299999 -0.046498399 1.5582038e-38 366 280
0.054718021 0.66399997 -0.046568532 1.5397647e-38 367 280
0.055882234 0.66399997 -0.046568532 1.5029941e-38 368 280
0.057218276 0.66600001 -0.046708796 1.4752994e-38 369 280
0.058385998 0.66600001 -0.046708796 1.4384571e-38 370 280
0.059643134 0.667 -0.046778932 1.4292376e-38 371 280
0.060812607 0.667 -0.046778932 1.4198751e-38 372 280
0.06226087 0.67000002 -0.046989333 1.4106555e-38 373 280
0.063530281 0.671 -0.047059465 1.3829244e-38 374 280
0.064803198 0.67199999 -0.047129598 1.3552655e-38 375 280
0.066177815 0.67400002 -0.047269866 1.3459371e-38 376 280
0.067459501 0.67500001 -0.047339998 1.309023e-38 377 280
0.068643004 0.67500001 -0.047339998 1.2904396e-38 378 280
0.069929942 0.676 -0.047410134 1.2443778e-38 379 280
0.071115203 0.676 -0.047410134 1.2259398e-38 380 280
0.072728261 0.68000001 -0.047690667 1.2167203e-38 381 280
0.073920533 0.68000001 -0.047690667 1.1708395e-38 382 280
0.075333714 0.68199998 -0.047830928 1.1615841e-38 383 280
0.076641709 0.68300003 -0.047901068 1.1156314e-38 384 280
0.078295097 0.68699998 -0.048181597 1.1156314e-38 385 280
0.079615362 0.68800002 -0.048251733 1.0604608e-38 386 280
0.080821648 0.68800002 -0.048251733 1.0604608e-38 387 280
-0.03602048 0.64200002 -0.046151239 1.5942536e-38 288 281
-0.034840483 0.64099997 -0.046079349 1.5758504e-38 289 281
-0.033716597 0.64099997 -0.046079349 1.5850321e-38 290 281
-0.03259271 0.64099997 -0.046079349 1.6403495e-38 291 281
-0.031517919 0.64200002 -0.046151239 1.6681861e-38 292 281
-0.030392278 0.64200002 -0.046151239 1.6774057e-38 293 281
-0.029266641 0.64200002 -0.046151239 1.7233218e-38 294 281
-0.028184833 0.64300001 -0.046223126 1.7049185e-38 295 281
-0.027057439 0.64300001 -0.046223126 1.7325748e-38 296 281
-0.025930047 0.64300001 -0.046223126 1.7417944e-38 297 281
-0.024841227 0.64399999 -0.04629501 1.7235703e-38 298 281
-0.02363844 0.64200002 -0.046151239 1.7235703e-38 299 281
-0.022512799 0.64200002 -0.046151239 1.7695255e-38 300 281
-0.021420473 0.64300001 -0.046223126 1.7695255e-38 301 281
-0.020293079 0.64300001 -0.046223126 1.7971136e-38 302 281
-0.019165685 0.64300001 -0.046223126 1.7971136e-38 303 281
-0.018038293 0.64300001 -0.046223126 1.8246646e-38 304 281
-0.016910899 0.64300001 -0.046223126 1.8246646e-38 305 281
-0.015783506 0.64300001 -0.046223126 1.8246644e-38 306 281
-0.014656113 0.64300001 -0.046223126 1.8246644e-38 307 281
-0.01352872 0.64300001 -0.046223126 1.8338476e-38 308 281
-0.012401327 0.64300001 -0.046223126 1.8430672e-38 309 281
-0.011273934 0.64300001 -0.046223126 1.8431388e-38 310 281
-0.01016232 0.64399999 -0.04629501 1.8431388e-38 311 281
-0.0090331733 0.64399999 -0.04629501 1.8707255e-38 312 281
-0.0079040267 0.64399999 -0.04629501 1.8707255e-38 313 281
-0.0067748795 0.64399999 -0.04629501 1.8522868e-38 314 281
-0.0056457333 0.64399999 -0.04629501 1.8522868e-38 315 281
-0.0045306133 0.64600003 -0.046438787 1.8706901e-38 316 281
-0.0033874398 0.64399999 -0.04629501 1.852287e-38 317 281
-0.0022582933 0.64399999 -0.04629501 1.852287e-38 318 281
-0.0011273933 0.64300001 -0.046223126 1.8430316e-38 319 281
0 0.64300001 -0.046223126 1.8430316e-38 320 281
0.0011291467 0.64399999 -0.04629501 1.8430316e-38 321 281
0.0022582933 0.64399999 -0.04629501 1.8338839e-38 322 281
0.0033874398 0.64399999 -0.04629501 1.8338839e-38 323 281
0.0045165867 0.64399999 -0.04629501 1.8063329e-38 324 281
0.0056457333 0.64399999 -0.04629501 1.8063329e-38 325 281
0.0067748795 0.64399999 -0.04629501 1.8062975e-38 326 281
0.0079040267 0.64399999 -0.04629501 1.8062975e-38 327 281
0.0090331733 0.64399999 -0.04629501 1.8062975e-38 328 281
0.01016232 0.64399999 -0.04629501 1.8062975e-38 329 281
0.011291467 0.64399999 -0.04629501 1.7787823e-38 330 281
0.012420613 0.64399999 -0.04629501 1.7695269e-38 331 281
0.013549759 0.64399999 -0.04629501 1.7603075e-38 332 281
0.014678906 0.64399999 -0.04629501 1.7695272e-38 333 281
0.015857147 0.64600003 -0.046438787 1.7694554e-38 334 281
0.016989801 0.64600003 -0.046438787 1.7694554e-38 335 281
0.018150507 0.64700001 -0.046510674 1.7602725e-38 336 281
0.019284913 0.64700001 -0.046510674 1.7602725e-38 337 281
0.020450879 0.648 -0.046582561 1.7327225e-38 338 281
0.02158704 0.648 -0.046582561 1.7327225e-38 339 281
0.0227232 0.648 -0.046582561 1.7143916e-38 340 281
0.023896178 0.64899999 -0.046654444 1.7051719e-38 341 281
0.025034092 0.64899999 -0.046654444 1.6684009e-38 342 281
0.026172007 0.64899999 -0.046654444 1.6499618e-38 343 281
0.027309919 0.64899999 -0.046654444 1.5672025e-38 344 281
0.028447833 0.64899999 -0.046654444 1.5672025e-38 345 281
0.029631332 0.64999998 -0.046726331 1.5672394e-38 346 281
0.030865679 0.65200001 -0.046870105 1.6133372e-38 347 281
0.032008853 0.65200001 -0.046870105 1.6134454e-38 348 281
0.033202872 0.653 -0.046941992 1.6226651e-38 349 281
0.034400396 0.65399998 -0.047013879 1.659436e-38 350 281
0.035547078 0.65399998 -0.047013879 1.6778391e-38 351 281
0.036693759 0.65399998 -0.047013879 1.6595442e-38 352 281
0.037840437 0.65399998 -0.047013879 1.6595442e-38 353 281
0.038987119 0.65399998 -0.047013879 1.6595442e-38 354 281
0.040133797 0.65399998 -0.047013879 1.6687637e-38 355 281
0.041343596 0.65499997 -0.047085766 1.6687291e-38 356 281
0.042492028 0.65499997 -0.047085766 1.6687291e-38 357 281
0.043640465 0.65499997 -0.047085766 1.650327e-38 358 281
0.044788897 0.65499997 -0.047085766 1.6411073e-38 359 281
0.046077598 0.65700001 -0.04722954 1.6227408e-38 360 281
0.04722954 0.65700001 -0.04722954 1.6227408e-38 361 281
0.048381478 0.65700001 -0.04722954 1.6411076e-38 362 281
0.049684204 0.65899998 -0.04737331 1.6226326e-38 363 281
0.050993945 0.66100001 -0.047517084 1.5858975e-38 364 281
0.0522318 0.662 -0.047588971 1.5397997e-38 365 281
0.053473156 0.66299999 -0.047660857 1.5212884e-38 366 281
0.054718021 0.66399997 -0.047732744 1.5120687e-38 367 281
0.055882234 0.66399997 -0.047732744 1.4475685e-38 368 281
0.057218276 0.66600001 -0.047876518 1.4199457e-38 369 281
0.058385998 0.66600001 -0.047876518 1.4382047e-38 370 281
0.059553716 0.66600001 -0.047876518 1.4197656e-38 371 281
0.060812607 0.667 -0.047948405 1.3737753e-38 372 281
0.06226087 0.67000002 -0.048164066 1.3737753e-38 373 281
0.063530281 0.671 -0.048235953 1.3920349e-38 374 281
0.064803198 0.67199999 -0.04830784 1.3551568e-38 375 281
0.066177815 0.67400002 -0.048451614 1.3183863e-38 376 281
0.067459501 0.67500001 -0.048523501 1.2906917e-38 377 281
0.068643004 0.67500001 -0.048523501 1.2445945e-38 378 281
0.069929942 0.676 -0.048595384 1.2168999e-38 379 281
0.0713256 0.67799997 -0.048739154 1.1983535e-38 380 281
0.072621316 0.67900002 -0.048811045 1.1983535e-38 381 281
0.073920533 0.68000001 -0.048882935 1.134033e-38 382 281
0.075112797 0.68000001 -0.048882935 1.134033e-38 383 281
0.076529488 0.68199998 -0.049026705 1.0880807e-38 384 281
0.078295097 0.68699998 -0.049386136 1.0696415e-38 385 281
0.079615362 0.68800002 -0.049458027 1.0419145e-38 386 281
-0.037030395 0.63999999 -0.047129598 1.5851027e-38 287 282
-0.035908263 0.63999999 -0.047129598 1.6403087e-38 288 282
-0.034840483 0.64099997 -0.047203235 1.6495283e-38 289 282
-0.033716597 0.64099997 -0.047203235 1.6863341e-38 290 282
-0.03259271 0.64099997 -0.047203235 1.7140286e-38 291 282
-0.031468827 0.64099997 -0.047203235 1.7049886e-38 292 282
-0.030344937 0.64099997 -0.047203235 1.7233918e-38 293 282
-0.02922105 0.64099997 -0.047203235 1.7416863e-38 294 282
-0.028141001 0.64200002 -0.047276881 1.7601256e-38 295 282
-0.02701536 0.64200002 -0.047276881 1.7694161e-38 296 282
-0.025889721 0.64200002 -0.047276881 1.7694161e-38 297 282
-0.02476408 0.64200002 -0.047276881 1.7601975e-38 298 282
-0.02363844 0.64200002 -0.047276881 1.7694529e-38 299 282
-0.022512799 0.64200002 -0.047276881 1.7602709e-38 300 282
-0.02138716 0.64200002 -0.047276881 1.7694905e-38 301 282
-0.020229958 0.64099997 -0.047203235 1.7970067e-38 302 282
-0.019106071 0.64099997 -0.047203235 1.7970067e-38 303 282
-0.017982185 0.64099997 -0.047203235 1.7877511e-38 304 282
-0.016858298 0.64099997 -0.047203235 1.7970067e-38 305 282
-0.01575896 0.64200002 -0.047276881 1.8153379e-38 306 282
-0.014656113 0.64300001 -0.047350518 1.8153379e-38 307 282
-0.01350768 0.64200002 -0.047276881 1.8245209e-38 308 282
-0.01238204 0.64200002 -0.047276881 1.842924e-38 309 282
-0.0112564 0.64200002 -0.047276881 1.8338476e-38 310 282
-0.01013076 0.64200002 -0.047276881 1.8430672e-38 311 282
-0.0090191467 0.64300001 -0.047350518 1.8339195e-38 312 282
-0.0078917528 0.64300001 -0.047350518 1.8339195e-38 313 282
-0.00675384 0.64200002 -0.047276881 1.8339195e-38 314 282
-0.0056281998 0.64200002 -0.047276881 1.8339195e-38 315 282
-0.00450256 0.64200002 -0.047276881 1.8338842e-38 316 282
-0.00337692 0.64200002 -0.047276881 1.8338842e-38 317 282
-0.00225128 0.64200002 -0.047276881 1.8246293e-38 318 282
-0.00112564 0.64200002 -0.047276881 1.8246293e-38 319 282
0 0.64200002 -0.047276881 1.8246293e-38 320 282
0.00112564 0.64200002 -0.047276881 1.8246293e-38 321 282
0.0022547867 0.64300001 -0.047350518 1.7970785e-38 322 282
0.0033821799 0.64300001 -0.047350518 1.7878231e-38 323 282
0.0045095733 0.64300001 -0.047350518 1.7694922e-38 324 282
0.0056369668 0.64300001 -0.047350518 1.7694922e-38 325 282
0.0067643598 0.64300001 -0.047350518 1.7511253e-38 326 282
0.0078917528 0.64300001 -0.047350518 1.7511253e-38 327 282
0.0090191467 0.64300001 -0.047350518 1.7511607e-38 328 282
0.01014654 0.64300001 -0.047350518 1.7511607e-38 329 282
0.011273934 0.64300001 -0.047350518 1.7327208e-38 330 282
0.012420613 0.64399999 -0.04742416 1.7327208e-38 331 282
0.013549759 0.64399999 -0.04742416 1.7234662e-38 332 282
0.014678906 0.64399999 -0.04742416 1.7326858e-38 333 282
0.015808053 0.64399999 -0.04742416 1.7234665e-38 334 282
0.016989801 0.64600003 -0.047571443 1.7326861e-38 335 282
0.018150507 0.64700001 -0.047645077 1.7050997e-38 336 282
0.019284913 0.64700001 -0.047645077 1.7050997e-38 337 282
0.02041932 0.64700001 -0.047645077 1.686805e-38 338 282
0.021553727 0.64700001 -0.047645077 1.6775855e-38 339 282
0.0227232 0.648 -0.047718719 1.6684378e-38 340 282
0.023859359 0.648 -0.047718719 1.6500347e-38 341 282
0.024995521 0.648 -0.047718719 1.6407793e-38 342 282
0.02613168 0.648 -0.047718719 1.6315597e-38 343 282
0.027309919 0.64899999 -0.047792356 1.6039739e-38 344 282
0.028447833 0.64899999 -0.047792356 1.5947542e-38 345 282
0.029631332 0.64999998 -0.047865998 1.5764243e-38 346 282
0.030770998 0.64999998 -0.047865998 1.5948635e-38 347 282
0.032008853 0.65200001 -0.048013281 1.6041555e-38 348 282
0.033152029 0.65200001 -0.048013281 1.6225947e-38 349 282
0.034347799 0.653 -0.048086919 1.6318865e-38 350 282
0.035492726 0.653 -0.048086919 1.641106e-38 351 282
0.036693759 0.65399998 -0.048160557 1.6319584e-38 352 282
0.037840437 0.65399998 -0.048160557 1.6227029e-38 353 282
0.038987119 0.65399998 -0.048160557 1.6319228e-38 354 282
0.040133797 0.65399998 -0.048160557 1.6319228e-38 355 282
0.041280478 0.65399998 -0.048160557 1.6135562e-38 356 282
0.042492028 0.65499997 -0.048234195 1.6135562e-38 357 282
0.043640465 0.65499997 -0.048234195 1.6043735e-38 358 282
0.044788897 0.65499997 -0.048234195 1.5767508e-38 359 282
0.046077598 0.65700001 -0.048381478 1.5491645e-38 360 282
0.04722954 0.65700001 -0.048381478 1.5491645e-38 361 282
0.048381478 0.65700001 -0.048381478 1.5766424e-38 362 282
0.049684204 0.65899998 -0.048528757 1.5398e-38 363 282
0.050993945 0.66100001 -0.04867604 1.5121761e-38 364 282
0.052152898 0.66100001 -0.04867604 1.4845174e-38 365 282
0.053473156 0.66299999 -0.048823316 1.4476388e-38 366 282
0.054718021 0.66399997 -0.048896957 1.420016e-38 367 282
0.055882234 0.66399997 -0.048896957 1.4382769e-38 368 282
0.057218276 0.66600001 -0.04904424 1.4106542e-38 369 282
0.058385998 0.66600001 -0.04904424 1.3921792e-38 370 282
0.059553716 0.66600001 -0.04904424 1.3829595e-38 371 282
0.060812607 0.667 -0.049117878 1.3829227e-38 372 282
0.06226087 0.67000002 -0.049338799 1.3737031e-38 373 282
0.063530281 0.671 -0.049412437 1.3644838e-38 374 282
0.064803198 0.67199999 -0.049486078 1.3367891e-38 375 282
0.066177815 0.67400002 -0.049633358 1.3274977e-38 376 282
0.067459501 0.67500001 -0.049706999 1.2813999e-38 377 282
0.068744689 0.676 -0.049780637 1.2261195e-38 378 282
0.069929942 0.676 -0.049780637 1.1892771e-38 379 282
0.0713256 0.67799997 -0.049927916 1.1800225e-38 380 282
0.072621316 0.67900002 -0.050001562 1.1615475e-38 381 282
0.073920533 0.68000001 -0.050075196 1.0972276e-38 382 282
0.075112797 0.68000001 -0.050075196 1.0880081e-38 383 282
0.076529488 0.68199998 -0.050222475 1.0327648e-38 384 282
-0.039336029 0.64099997 -0.048327126 1.6954135e-38 285 283
-0.038212143 0.64099997 -0.048327126 1.704775e-38 286 283
-0.037030395 0.63999999 -0.048251729 1.6955554e-38 287 283
-0.035908263 0.63999999 -0.048251729 1.7047735e-38 288 283
-0.034840483 0.64099997 -0.048327126 1.7323961e-38 289 283
-0.033663996 0.63999999 -0.048251729 1.7416861e-38 290 283
-0.032541864 0.63999999 -0.048251729 1.7416861e-38 291 283
-0.031419732 0.63999999 -0.048251729 1.741757e-38 292 283
-0.030344937 0.64099997 -0.048327126 1.7509765e-38 293 283
-0.02922105 0.64099997 -0.048327126 1.7601612e-38 294 283
-0.028141001 0.64200002 -0.048402522 1.7693808e-38 295 283
-0.026973277 0.64099997 -0.048327126 1.7510864e-38 296 283
-0.025849391 0.64099997 -0.048327126 1.7510864e-38 297 283
-0.02476408 0.64200002 -0.048402522 1.7969321e-38 298 283
-0.023601618 0.64099997 -0.048327126 1.7784571e-38 299 283
-0.022477733 0.64099997 -0.048327126 1.7692008e-38 300 283
-0.021353846 0.64099997 -0.048327126 1.7692008e-38 301 283
-0.020198399 0.63999999 -0.048251729 1.7783855e-38 302 283
-0.019076265 0.63999999 -0.048251729 1.7783855e-38 303 283
-0.017954132 0.63999999 -0.048251729 1.7599834e-38 304 283
-0.016858298 0.64099997 -0.048327126 1.7784224e-38 305 283
-0.015734414 0.64099997 -0.048327126 1.805901e-38 306 283
-0.014610525 0.64099997 -0.048327126 1.824376e-38 307 283
-0.013486639 0.64099997 -0.048327126 1.8152283e-38 308 283
-0.012362752 0.64099997 -0.048327126 1.8244479e-38 309 283
-0.011238866 0.64099997 -0.048327126 1.8153726e-38 310 283
-0.010114979 0.64099997 -0.048327126 1.8153726e-38 311 283
-0.0089910924 0.64099997 -0.048327126 1.806261e-38 312 283
-0.0078794798 0.64200002 -0.048402522 1.7970414e-38 313 283
-0.00675384 0.64200002 -0.048402522 1.806261e-38 314 283
-0.0056281998 0.64200002 -0.048402522 1.806261e-38 315 283
-0.00450256 0.64200002 -0.048402522 1.7970061e-38 316 283
-0.00337692 0.64200002 -0.048402522 1.7970061e-38 317 283
-0.00225128 0.64200002 -0.048402522 1.7970061e-38 318 283
-0.00112564 0.64200002 -0.048402522 1.7877864e-38 319 283
0 0.64200002 -0.048402522 1.7694199e-38 320 283
0.00112564 0.64200002 -0.048402522 1.7694199e-38 321 283
0.0022547867 0.64300001 -0.04847791 1.7510173e-38 322 283
0.00337692 0.64200002 -0.048402522 1.7417977e-38 323 283
0.00450256 0.64200002 -0.048402522 1.7417624e-38 324 283
0.0056369668 0.64300001 -0.04847791 1.7417624e-38 325 283
0.00675384 0.64200002 -0.048402522 1.7234312e-38 326 283
0.0078794798 0.64200002 -0.048402522 1.7234312e-38 327 283
0.0090191467 0.64300001 -0.04847791 1.7234665e-38 328 283
0.01014654 0.64300001 -0.04847791 1.7142469e-38 329 283
0.011273934 0.64300001 -0.04847791 1.7050268e-38 330 283
0.012401327 0.64300001 -0.04847791 1.7050268e-38 331 283
0.01352872 0.64300001 -0.04847791 1.7049552e-38 332 283
0.014678906 0.64399999 -0.048553303 1.7049552e-38 333 283
0.015808053 0.64399999 -0.048553303 1.6865884e-38 334 283
0.016989801 0.64600003 -0.048704095 1.6865884e-38 335 283
0.018122453 0.64600003 -0.048704095 1.677441e-38 336 283
0.019255107 0.64600003 -0.048704095 1.6866606e-38 337 283
0.020387759 0.64600003 -0.048704095 1.6591108e-38 338 283
0.021520413 0.64600003 -0.048704095 1.6591108e-38 339 283
0.022688134 0.64700001 -0.048779488 1.6407798e-38 340 283
0.023822539 0.64700001 -0.048779488 1.6315602e-38 341 283
0.024995521 0.648 -0.04885488 1.6223048e-38 342 283
0.02613168 0.648 -0.04885488 1.6223048e-38 343 283
0.02726784 0.648 -0.04885488 1.5855706e-38 344 283
0.028447833 0.64899999 -0.048930272 1.5855706e-38 345 283
0.029585747 0.64899999 -0.048930272 1.5672044e-38 346 283
0.030770998 0.64999998 -0.049005665 1.5948991e-38 347 283
0.031910665 0.64999998 -0.049005665 1.6041555e-38 348 283
0.033050328 0.64999998 -0.049005665 1.6225947e-38 349 283
0.034295198 0.65200001 -0.049156453 1.6226313e-38 350 283
0.035438374 0.65200001 -0.049156453 1.6226313e-38 351 283
0.036693759 0.65399998 -0.049307238 1.6226313e-38 352 283
0.03778258 0.653 -0.049231846 1.6134118e-38 353 283
0.038927507 0.653 -0.049231846 1.5951168e-38 354 283
0.040133797 0.65399998 -0.049307238 1.5951168e-38 355 283
0.041280478 0.65399998 -0.049307238 1.5951171e-38 356 283
0.04242716 0.65399998 -0.049307238 1.576678e-38 357 283
0.043640465 0.65499997 -0.049382631 1.5858254e-38 358 283
0.044788897 0.65499997 -0.049382631 1.5673861e-38 359 283
0.046077598 0.65700001 -0.049533416 1.5397985e-38 360 283
0.04722954 0.65700001 -0.049533416 1.530543e-38 361 283
0.048381478 0.65700001 -0.049533416 1.5120672e-38 362 283
0.049684204 0.65899998 -0.049684204 1.4843726e-38 363 283
0.050993945 0.66100001 -0.049834993 1.4475671e-38 364 283
0.052152898 0.66100001 -0.049834993 1.4383475e-38 365 283
0.053473156 0.66299999 -0.049985778 1.401506e-38 366 283
0.054718021 0.66399997 -0.05006117 1.3646636e-38 367 283
0.055882234 0.66399997 -0.05006117 1.3922145e-38 368 283
0.057218276 0.66600001 -0.050211959 1.3829948e-38 369 283
0.058385998 0.66600001 -0.050211959 1.382958e-38 370 283
0.059553716 0.66600001 -0.050211959 1.382958e-38 371 283
0.060812607 0.667 -0.050287351 1.3645905e-38 372 283
0.06226087 0.67000002 -0.050513536 1.3553709e-38 373 283
0.063530281 0.671 -0.050588924 1.3552637e-38 374 283
0.064996064 0.67400002 -0.050815105 1.3368244e-38 375 283
0.066275999 0.67500001 -0.050890498 1.2999466e-38 376 283
0.067559443 0.676 -0.050965894 1.2722878e-38 377 283
0.068744689 0.676 -0.050965894 1.2353749e-38 378 283
0.070136838 0.67799997 -0.051116679 1.1892771e-38 379 283
0.0713256 0.67799997 -0.051116679 1.1615841e-38 380 283
0.072728261 0.68000001 -0.051267464 1.1247418e-38 381 283
0.073920533 0.68000001 -0.051267464 1.0787177e-38 382 283
0.075333714 0.68199998 -0.051418249 1.0603146e-38 383 283
0.076641709 0.68300003 -0.051493648 9.5908258e-39 384 283
-0.041583803 0.64099997 -0.049451008 1.677044e-38 283 284
-0.040459916 0.64099997 -0.049451008 1.6954817e-38 284 284
-0.039274666 0.63999999 -0.049373865 1.7231403e-38 285 284
-0.038152531 0.63999999 -0.049373865 1.7048441e-38 286 284
-0.037030395 0.63999999 -0.049373865 1.7048441e-38 287 284
-0.035908263 0.63999999 -0.049373865 1.7140634e-38 288 284
-0.034786131 0.63999999 -0.049373865 1.7416861e-38 289 284
-0.033663996 0.63999999 -0.049373865 1.7508696e-38 290 284
-0.032541864 0.63999999 -0.049373865 1.7600892e-38 291 284
-0.031419732 0.63999999 -0.049373865 1.7784924e-38 292 284
-0.030297596 0.63999999 -0.049373865 1.7784924e-38 293 284
-0.029175464 0.63999999 -0.049373865 1.7877123e-38 294 284
-0.028053332 0.63999999 -0.049373865 1.750834e-38 295 284
-0.026931198 0.63999999 -0.049373865 1.7323952e-38 296 284
-0.025809065 0.63999999 -0.049373865 1.7323952e-38 297 284
-0.024686933 0.63999999 -0.049373865 1.7506895e-38 298 284
-0.023564799 0.63999999 -0.049373865 1.7138113e-38 299 284
-0.022442665 0.63999999 -0.049373865 1.7045179e-38 300 284
-0.021320533 0.63999999 -0.049373865 1.6768232e-38 301 284
-0.02013528 0.63800001 -0.049219571 1.6309424e-38 302 284
-0.019016653 0.63800001 -0.049219571 1.6862598e-38 303 284
-0.017898027 0.63800001 -0.049219571 1.6865141e-38 304 284
-0.016779399 0.63800001 -0.049219571 1.7049533e-38 305 284
-0.015660774 0.63800001 -0.049219571 1.741616e-38 306 284
-0.014542148 0.63800001 -0.049219571 1.7600553e-38 307 284
-0.01342352 0.63800001 -0.049219571 1.7968249e-38 308 284
-0.012304893 0.63800001 -0.049219571 1.815228e-38 309 284
-0.011221332 0.63999999 -0.049373865 1.7877498e-38 310 284
-0.0100992 0.63999999 -0.049373865 1.8061529e-38 311 284
-0.0089910924 0.64099997 -0.049451008 1.7878214e-38 312 284
-0.0078672068 0.64099997 -0.049451008 1.7786019e-38 313 284
-0.0067433193 0.64099997 -0.049451008 1.7786375e-38 314 284
-0.0056194332 0.64099997 -0.049451008 1.7786375e-38 315 284
-0.0044955462 0.64099997 -0.049451008 1.7602353e-38 316 284
-0.0033716597 0.64099997 -0.049451008 1.7510158e-38 317 284
-0.0022477731 0.64099997 -0.049451008 1.7417243e-38 318 284
-0.0011238866 0.64099997 -0.049451008 1.7601274e-38 319 284
0 0.64099997 -0.049451008 1.7417606e-38 320 284
0.0011238866 0.64099997 -0.049451008 1.732541e-38 321 284
0.00225128 0.64200002 -0.049528159 1.7141748e-38 322 284
0.00337692 0.64200002 -0.049528159 1.7049552e-38 323 284
0.00450256 0.64200002 -0.049528159 1.7232511e-38 324 284
0.0056281998 0.64200002 -0.049528159 1.704848e-38 325 284
0.00675384 0.64200002 -0.049528159 1.6773338e-38 326 284
0.0078794798 0.64200002 -0.049528159 1.6865534e-38 327 284
0.00900512 0.64200002 -0.049528159 1.6865531e-38 328 284
0.01013076 0.64200002 -0.049528159 1.6773335e-38 329 284
0.0112564 0.64200002 -0.049528159 1.6773688e-38 330 284
0.012401327 0.64300001 -0.049605306 1.6681491e-38 331 284
0.01352872 0.64300001 -0.049605306 1.6681491e-38 332 284
0.014678906 0.64399999 -0.049682453 1.6681491e-38 333 284
0.015808053 0.64399999 -0.049682453 1.6589661e-38 334 284
0.016989801 0.64600003 -0.049836747 1.6589661e-38 335 284
0.018122453 0.64600003 -0.049836747 1.6405993e-38 336 284
0.019255107 0.64600003 -0.049836747 1.6405993e-38 337 284
0.020387759 0.64600003 -0.049836747 1.6223048e-38 338 284
0.021520413 0.64600003 -0.049836747 1.6223048e-38 339 284
0.022688134 0.64700001 -0.049913891 1.6039383e-38 340 284
0.023822539 0.64700001 -0.049913891 1.6039383e-38 341 284
0.024956945 0.64700001 -0.049913891 1.5947542e-38 342 284
0.02613168 0.648 -0.049991041 1.5947542e-38 343 284
0.02726784 0.648 -0.049991041 1.5671675e-38 344 284
0.028404001 0.648 -0.049991041 1.5855706e-38 345 284
0.029585747 0.64899999 -0.050068185 1.5672044e-38 346 284
0.030723657 0.64899999 -0.050068185 1.5856436e-38 347 284
0.031910665 0.64999998 -0.050145328 1.5949719e-38 348 284
0.033050328 0.64999998 -0.050145328 1.6041916e-38 349 284
0.034295198 0.65200001 -0.050299626 1.5949722e-38 350 284
0.035438374 0.65200001 -0.050299626 1.5949722e-38 351 284
0.036637653 0.653 -0.050376773 1.5949722e-38 352 284
0.03778258 0.653 -0.050376773 1.6041919e-38 353 284
0.038927507 0.653 -0.050376773 1.5766774e-38 354 284
0.04007243 0.653 -0.050376773 1.5582742e-38 355 284
0.041217357 0.653 -0.050376773 1.5397994e-38 356 284
0.04242716 0.65399998 -0.050453916 1.5213603e-38 357 284
0.043640465 0.65499997 -0.050531063 1.5121758e-38 358 284
0.044788897 0.65499997 -0.050531063 1.466078e-38 359 284
0.04593733 0.65499997 -0.050531063 1.4843359e-38 360 284
