# .PCD v0.7 - Point Cloud Data file format
VERSION 0.7
FIELDS x y z rgba
SIZE 4 4 4 4
TYPE F F F U
COUNT 1 1 1 1
WIDTH 1108
HEIGHT 1
VIEWPOINT 0 0 0 1 0 0 0
POINTS 1108
DATA ascii
0.72161072 -0.37245369 -0.11491127 4404028
0.7216661 -0.37249324 -0.11337372 4535355
0.71849048 -0.37246567 -0.12689674 4732741
0.71854573 -0.3725051 -0.12536299 4732740
0.72038406 -0.37346897 -0.12413651 4732483
0.71865624 -0.37258402 -0.12229551 4666948
0.72049487 -0.37354806 -0.12106143 4601414
0.71876669 -0.3726629 -0.11922804 4536389
0.71882194 -0.37270236 -0.1176943 4404804
0.7188772 -0.37274179 -0.11616056 4339263
0.71893245 -0.37278125 -0.11462683 4404795
0.71748787 -0.37363622 -0.1299642 4732996
0.71754313 -0.37367567 -0.12843047 4732741
0.71581769 -0.37278777 -0.12658185 4732742
0.71587282 -0.37282711 -0.12505192 4798276
0.71770889 -0.37379399 -0.12382925 4732994
0.71598303 -0.37290582 -0.12199205 4667204
0.71603811 -0.37294516 -0.12046212 4666951
0.71609324 -0.3729845 -0.11893219 4666949
0.71614838 -0.37302387 -0.11740226 4535875
0.71470737 -0.37387672 -0.13270156 4931139
0.71476245 -0.37391606 -0.13117163 4931139
0.71481758 -0.3739554 -0.12964171 4865603
0.71487272 -0.37399477 -0.12811178 4800069
0.71492779 -0.37403411 -0.12658185 4800071
0.71320438 -0.37314293 -0.12474085 4800068
0.71325934 -0.37318218 -0.12321471 4799554
0.71331429 -0.37322143 -0.1216886 4733765
0.71336931 -0.37326068 -0.12016246 4799048
0.71198684 -0.37415066 -0.13389759 5062471
0.71204185 -0.37418991 -0.13237146 5062212
0.71209681 -0.37422916 -0.13084534 5062211
0.71215177 -0.37426841 -0.12931921 4931650
0.71220672 -0.37430766 -0.12779309 4865859
0.71226174 -0.37434694 -0.12626696 4865860
0.71054029 -0.37345254 -0.12442975 4865603
0.71059513 -0.37349167 -0.12290744 4865603
0.71064997 -0.37353083 -0.12138512 4865349
0.70766193 -0.37359974 -0.13019274 5128003
0.70949036 -0.3745752 -0.12899673 4997185
0.7095452 -0.37461436 -0.12747441 4932417
0.70782602 -0.37371689 -0.1256372 4931649
0.70788074 -0.37375596 -0.12411869 4931650
0.70594764 -0.37440607 -0.12851299 5062726
0.7060023 -0.37444508 -0.12699638 4997189
0.70605689 -0.37448409 -0.12547977 4997445
0.70335066 -0.3747378 -0.12667769 4997450
0.75104564 -0.36495069 -0.1018764 3021333
0.75110233 -0.36499116 -0.1003027 3152920
0.74934244 -0.36414886 -0.098490261 3086619
0.75194442 -0.36711839 -0.10212279 2955794
0.75018698 -0.36627316 -0.1003027 3021334
0.75024366 -0.36631364 -0.098729014 3021338
0.74848586 -0.36546811 -0.096920364 3021338
0.74672771 -0.36462241 -0.095119312 3021338
0.74678415 -0.36466268 -0.09355323 3087127
0.75102687 -0.36840349 -0.10212279 2955792
0.74932832 -0.36759564 -0.098729014 2759193
0.74581683 -0.36589822 -0.095119312 2693658
0.74587321 -0.36593848 -0.09355323 2890262
0.75005245 -0.36964801 -0.10370029 3022106
0.7491349 -0.37093309 -0.10370029 3352865
0.74816054 -0.37217763 -0.10527779 3682091
0.74352437 -0.37157997 -0.1079096 3878703
0.74358088 -0.37162036 -0.10633971 3878705
0.74544019 -0.37256172 -0.10502381 3813171
0.74549687 -0.37260219 -0.1034501 3747120
0.74386364 -0.37182224 -0.098490261 3682095
0.74255466 -0.3728185 -0.1094795 3944754
0.74261123 -0.37285888 -0.1079096 4010544
0.74266773 -0.37289926 -0.10633971 4075825
0.7427243 -0.37293965 -0.10476983 3944754
0.74278086 -0.37298 -0.10319994 3878962
0.74283743 -0.37302038 -0.10163004 3878962
0.74289393 -0.37306076 -0.10006014 3944754
0.73984361 -0.37319046 -0.10921408 3945779
0.73989999 -0.37323076 -0.107648 4010033
0.73995638 -0.37327102 -0.10608192 4075825
0.74001282 -0.37331131 -0.10451582 4010289
0.74006921 -0.37335157 -0.10294974 3945011
0.74012566 -0.37339187 -0.10138366 3945014
0.74018204 -0.37343213 -0.099817574 4010550
0.74023849 -0.37347242 -0.098251484 3945015
0.73881984 -0.37438571 -0.11234625 4076345
0.73887622 -0.37442601 -0.11078016 4010295
0.73713696 -0.37355629 -0.10894869 4010038
0.73719323 -0.37359646 -0.10738641 4075317
0.73724949 -0.37363666 -0.10582413 4141109
0.73730582 -0.37367684 -0.10426185 4075829
0.73736209 -0.37371701 -0.10269956 4076087
0.73741835 -0.37375718 -0.10113729 4076088
0.73785251 -0.37562123 -0.11391235 4207676
0.73611569 -0.37474862 -0.11207325 4142138
0.73617202 -0.37478879 -0.11051097 4141368
0.73622829 -0.37482896 -0.10894869 4206905
0.73628455 -0.37486917 -0.10738641 4206650
0.73634082 -0.37490934 -0.10582413 4206650
0.73460323 -0.37403613 -0.10400786 4206650
0.73465937 -0.37407622 -0.10244939 4207162
0.731345 -0.37398937 -0.11930056 4535869
0.73140097 -0.37402937 -0.11774589 4535868
0.72966641 -0.37315363 -0.11590679 4666428
0.73151296 -0.37410933 -0.11463656 4797243
0.73335987 -0.37506524 -0.11335871 4535099
0.73162502 -0.37418929 -0.11152721 4272954
0.73168099 -0.37422928 -0.10997254 4337977
0.72994572 -0.37335306 -0.10815247 4403513
0.73000163 -0.37339294 -0.10660162 4337978
0.72781432 -0.37391776 -0.11731352 4404799
0.72887611 -0.37449679 -0.11280506 4404026
0.72893196 -0.37453669 -0.1112542 4207418
0.72898781 -0.37457657 -0.10970333 4273210
0.72814912 -0.3741568 -0.10801977 4339002
0.75108367 -0.36844406 -0.10054529 2955796
0.749385 -0.36763611 -0.097155318 2562841
0.75010931 -0.3696886 -0.10212279 2955800
0.75016612 -0.36972916 -0.10054529 2955288
0.75022292 -0.36976972 -0.098967791 2496024
0.74846965 -0.36891809 -0.097155318 2103066
0.74852633 -0.36895856 -0.095581621 2431003
0.74677271 -0.36810666 -0.093780577 2758164
0.74919176 -0.37097368 -0.10212279 3286560
0.74924856 -0.37101424 -0.10054529 3285788
0.74930537 -0.37105483 -0.098967791 3023640
0.7475543 -0.3702001 -0.097155318 2761498
0.74761099 -0.37024057 -0.095581621 2891805
0.74585956 -0.36938557 -0.093780577 3022355
0.74821734 -0.37221819 -0.10370029 3681833
0.74827415 -0.37225878 -0.10212279 3616039
0.74833101 -0.37229934 -0.10054529 3615525
0.74658227 -0.3714416 -0.098729014 3484195
0.74663895 -0.3714821 -0.097155318 3418404
0.74669564 -0.37152258 -0.095581621 3352868
0.74555355 -0.37264267 -0.1018764 3747374
0.74561024 -0.37268314 -0.1003027 3748142
0.74392021 -0.37186262 -0.096920364 3616301
0.74397677 -0.37190297 -0.095350474 3616044
0.7429505 -0.37310115 -0.098490261 3879219
0.74300706 -0.37314153 -0.096920364 3878962
0.53826112 -0.37261081 -0.29539761 16049391
0.53830683 -0.37264344 -0.29412839 16049903
0.53835255 -0.37267607 -0.29285914 16050415
0.53662562 -0.37301937 -0.2974894 15459054
0.53667128 -0.37305197 -0.29622206 15524844
0.53671694 -0.37308455 -0.29495475 15590378
0.53595662 -0.37255692 -0.29324645 15590377
0.53600222 -0.37258947 -0.29198098 15721961
0.53685385 -0.37318233 -0.29115275 15853546
0.53333825 -0.37226954 -0.29993424 15062500
0.53338367 -0.372302 -0.29867262 14996451
0.53503823 -0.37345761 -0.29830813 14931173
0.53508383 -0.37349015 -0.29704273 14931430
0.53512943 -0.3735227 -0.29577729 14997223
0.53517503 -0.37355524 -0.29451185 15063016
0.53361094 -0.37246424 -0.29236451 15194599
0.53365636 -0.37249666 -0.29110289 15391975
0.53370184 -0.37252912 -0.28984129 15588584
0.53374726 -0.37256157 -0.28857964 15588585
0.53379267 -0.37259403 -0.28731805 15588841
0.53099775 -0.37217119 -0.29902944 15128031
0.53264987 -0.37332976 -0.29867262 15062236
0.53269529 -0.37336221 -0.29741099 15061981
0.53274077 -0.37339464 -0.29614934 15062239
0.53278619 -0.37342709 -0.29488775 15062754
0.53283167 -0.37345955 -0.29362613 15063014
0.53287709 -0.373492 -0.29236451 15128805
0.53211874 -0.37296107 -0.29066378 15260133
0.53296798 -0.37355688 -0.28984129 15392741
0.53220952 -0.37302586 -0.28814438 15392486
0.53145081 -0.3724947 -0.28645125 15457767
0.53230023 -0.37309065 -0.28562495 15391976
0.53154147 -0.3725594 -0.28393567 15391976
0.53182513 -0.37429261 -0.30119586 15194081
0.53106838 -0.37376049 -0.29948184 15193825
0.53191602 -0.37435752 -0.29867262 15193825
0.5319615 -0.37438998 -0.29741099 15194080
0.53200692 -0.37442243 -0.29614934 15129055
0.5320524 -0.37445486 -0.29488775 15128545
0.5312953 -0.3739225 -0.29318324 15128803
0.53134066 -0.37395489 -0.29192352 15128546
0.53138602 -0.37398729 -0.29066378 15193824
0.53143138 -0.37401968 -0.28940412 15259618
0.53067392 -0.37348703 -0.28770912 15260131
0.52991635 -0.37295431 -0.28601789 15326436
0.53076452 -0.37355173 -0.28519344 15258597
0.52704102 -0.37245771 -0.3001765 15062240
0.52948922 -0.37418818 -0.30028725 15062497
0.52873343 -0.3736544 -0.29857704 15064292
0.52877867 -0.3736867 -0.29732114 15063783
0.53122765 -0.37541774 -0.29741099 15063523
0.5304718 -0.37488389 -0.2957027 15063008
0.53051716 -0.37491632 -0.29444298 15062496
0.52976108 -0.37438229 -0.29274037 15128033
0.52980638 -0.37441465 -0.29148254 15193822
0.52985168 -0.37444699 -0.2902247 15193820
0.52989697 -0.37447935 -0.28896692 15193822
0.52914059 -0.37394512 -0.28727382 15325665
0.52918583 -0.37397742 -0.28601789 15457249
0.52923107 -0.37400973 -0.284762 15325666
0.52613229 -0.37334892 -0.3051849 14732762
0.52617741 -0.37338114 -0.30393285 14798811
0.52542275 -0.3728458 -0.30222067 14864860
0.52466798 -0.37231043 -0.3005124 14865630
0.52551281 -0.37291011 -0.29972026 14930910
0.52555788 -0.37294227 -0.29847008 14930911
0.52640295 -0.37354216 -0.29767227 14996192
0.52644801 -0.37357435 -0.29642019 14995937
0.5280934 -0.37474212 -0.29606521 14996192
0.52813864 -0.37477443 -0.29480931 14996702
0.52818388 -0.37480673 -0.29355338 14996959
0.52662843 -0.37370315 -0.29141176 15128288
0.52667356 -0.37373537 -0.29015964 15259615
0.52671862 -0.37376758 -0.2889075 15194334
0.52676374 -0.37379977 -0.28765541 15194335
0.52680886 -0.37383199 -0.2864033 15391200
0.52038962 -0.37079567 -0.30860552 14469850
0.52282894 -0.37253386 -0.30877909 14405080
0.5236721 -0.3731347 -0.3080022 14469847
0.52371711 -0.3731668 -0.30675393 14535128
0.52376205 -0.37319893 -0.3055056 14535897
0.52460551 -0.37379998 -0.30472109 14601433
0.52465051 -0.37383211 -0.30347088 14667481
0.52389693 -0.37329525 -0.3017607 14799066
0.52314323 -0.37275824 -0.30005431 14798812
0.52318811 -0.37279031 -0.29880792 14864349
0.523233 -0.37282237 -0.2975615 14864350
0.52327794 -0.37285441 -0.2963151 14864349
0.52012694 -0.37060931 -0.29326677 14798812
0.51937252 -0.37007183 -0.29157937 14800348
0.52580994 -0.37465876 -0.29391596 14865885
0.52585506 -0.37469098 -0.29266387 14931678
0.52590013 -0.37472317 -0.29141176 14997216
0.52594525 -0.37475538 -0.29015964 15128800
0.52519095 -0.37421799 -0.28846842 15128800
0.52523595 -0.37425014 -0.28721821 15128800
0.52042025 -0.3723447 -0.31032145 14537936
0.51887095 -0.37123615 -0.3081322 14403543
0.51891553 -0.371268 -0.30689341 14338006
0.52055454 -0.37244058 -0.30659369 14403797
0.52219379 -0.37361333 -0.30628631 14469845
0.52223867 -0.3736454 -0.30503991 14470102
0.52228355 -0.37367743 -0.30379349 14535894
0.52232844 -0.3737095 -0.3025471 14601943
0.52237338 -0.37374157 -0.3013007 14733272
0.52082312 -0.37263232 -0.29913813 14733530
0.52086788 -0.3726643 -0.29789555 14799067
0.52091265 -0.37269625 -0.29665294 14733532
0.52095741 -0.37272823 -0.29541034 14733019
0.51940638 -0.37161848 -0.29326677 14667481
0.51865309 -0.37107944 -0.29157937 14667739
0.51810575 -0.37221345 -0.30937099 14339787
0.51815039 -0.37224531 -0.3081322 14272213
0.51739901 -0.37170532 -0.30642197 14205908
0.5190357 -0.37288094 -0.30612415 14206675
0.51987654 -0.37348482 -0.30535111 14273491
0.5199213 -0.37351677 -0.3041085 14273491
0.51916975 -0.37297666 -0.30240208 14339284
0.51921445 -0.37300855 -0.30116138 14405078
0.51925915 -0.37304047 -0.29992071 14471127
0.51930386 -0.37307239 -0.29867998 14536920
0.5193485 -0.3731043 -0.29743931 14602969
0.51859659 -0.3725639 -0.29574433 14602459
0.51784456 -0.37202343 -0.29405314 14601945
0.51645678 -0.37255388 -0.31260639 12494270
0.51332289 -0.37029284 -0.30945343 12101310
0.51654589 -0.37261748 -0.31013265 13151422
0.51659048 -0.37264931 -0.30889577 14207432
0.516635 -0.37268111 -0.30765891 14140883
0.51667958 -0.37271294 -0.30642197 14075089
0.51672411 -0.37274474 -0.30518511 14075088
0.5175637 -0.37335005 -0.30441585 14074576
0.51760834 -0.37338191 -0.30317703 14139600
0.51765293 -0.37341377 -0.30193827 14205650
0.51690233 -0.37287199 -0.30023754 14206164
0.51694691 -0.37290379 -0.29900068 14206164
0.51699144 -0.37293562 -0.29776382 14271957
0.51703602 -0.37296742 -0.29652691 14403284
0.51548952 -0.37185153 -0.29438144 14403540
0.51573735 -0.3735615 -0.31260639 12495291
0.51260787 -0.37129426 -0.30945343 11905211
0.51344573 -0.37190068 -0.30870125 12954300
0.51428372 -0.37250718 -0.30794531 14009798
0.51591557 -0.37368873 -0.30765891 14075089
0.51437253 -0.37257063 -0.30547914 14140623
0.51441693 -0.37260234 -0.3042461 14140878
0.5144614 -0.37263405 -0.303013 14139854
0.5145058 -0.37266576 -0.30177993 14074318
0.51613837 -0.37384778 -0.30147448 14074832
0.51459461 -0.37272918 -0.29931378 14075091
0.51622748 -0.37391141 -0.29900068 14074578
0.51627201 -0.37394324 -0.29776382 14139858
0.51631659 -0.37397504 -0.29652691 14205391
0.51026392 -0.37111154 -0.30972084 12561080
0.51110047 -0.37171936 -0.30897439 11774393
0.5111447 -0.37175095 -0.30774701 12822969
0.51356649 -0.3735117 -0.30794531 13878214
0.5136109 -0.37354341 -0.30671221 14010578
0.51286268 -0.37299863 -0.30500773 14206162
0.51290703 -0.3730303 -0.30377656 14206673
0.51374418 -0.37363857 -0.303013 14271183
0.51378858 -0.37367028 -0.30177993 14074573
0.51145416 -0.37197191 -0.29915544 13943759
0.51149839 -0.37200347 -0.29792807 13944018
0.51416481 -0.37548128 -0.31631708 12035248
0.51025391 -0.37262455 -0.31265649 12625329
0.51029813 -0.37265611 -0.31142914 13280947
0.50955111 -0.37210986 -0.30972084 12429494
0.50801265 -0.37098566 -0.30753732 11641270
0.51201349 -0.37390661 -0.30870125 12559031
0.51205784 -0.37393826 -0.30747005 13484485
0.51289368 -0.37454793 -0.30671221 13616084
0.51135498 -0.37342355 -0.30453634 13682132
0.5106076 -0.37287706 -0.30283758 13747413
0.51065183 -0.37290865 -0.30161017 13747408
0.50990427 -0.37236202 -0.29991707 13746892
0.50994843 -0.37239352 -0.29869163 13746383
0.51344538 -0.37648889 -0.31631708 11641517
0.50954002 -0.37362441 -0.31265649 12428207
0.50958425 -0.37365597 -0.31142914 13215665
0.50725806 -0.37194943 -0.30875897 12363443
0.50651187 -0.37140146 -0.30705824 11510708
0.50734609 -0.37201229 -0.30631563 12295349
0.5089708 -0.37320274 -0.30604443 13153471
0.5113861 -0.37497291 -0.30623889 13155017
0.51063997 -0.37442496 -0.30453634 13220297
0.50989372 -0.37387693 -0.30283758 13220041
0.50914735 -0.3733288 -0.30114254 13285576
0.51101506 -0.37623984 -0.31904304 12296876
0.51105946 -0.37627155 -0.31780991 12296618
0.51110387 -0.37630326 -0.31657687 12165544
0.51114833 -0.37633497 -0.31534377 11968427
0.50882614 -0.37462425 -0.31265649 12493998
0.50887036 -0.37465584 -0.31142914 12953775
0.50654751 -0.37294465 -0.30875897 12429233
0.50580239 -0.37239513 -0.30705824 11904690
0.50663549 -0.37300751 -0.30631563 12362163
0.50667948 -0.37303892 -0.30509397 12822457
0.50672352 -0.37307033 -0.30387232 12955071
0.50676751 -0.37310174 -0.30265063 13087934
0.50839043 -0.37429559 -0.30236802 13022910
0.50843453 -0.37432712 -0.30114254 12957889
0.50931245 -0.37497151 -0.29915544 13416131
0.50946599 -0.37663051 -0.31978184 12297136
0.50951034 -0.37666216 -0.31855065 12296877
0.50876713 -0.37611163 -0.31682903 12362157
0.5080238 -0.375561 -0.31511125 12362156
0.50806803 -0.37559256 -0.31388387 12362673
0.50811219 -0.37562412 -0.31265649 12560054
0.50815642 -0.37565568 -0.31142914 12757427
0.5058369 -0.37393987 -0.30875897 12561073
0.50509292 -0.3733888 -0.30705824 12363187
0.50513691 -0.37342015 -0.30583853 12426165
0.50754517 -0.37519938 -0.30604443 12495033
0.50758934 -0.37523088 -0.30481896 12692413
0.5060569 -0.37409696 -0.30265063 12954303
0.5079636 -0.3770498 -0.31928763 12231862
0.50800782 -0.37708142 -0.31805834 12428207
0.50726569 -0.37652931 -0.3163386 12559280
0.50730991 -0.37656087 -0.31511125 12493233
0.50656754 -0.37600857 -0.31339723 12428727
0.50661165 -0.3760401 -0.31217179 12494782
0.50508231 -0.37490365 -0.30998063 12626616
0.5051263 -0.37493509 -0.30875897 12495026
0.50438344 -0.37438244 -0.30705824 12362933
0.50364047 -0.37382972 -0.30536136 12363448
0.50368434 -0.37386104 -0.30414349 12364218
0.50646335 -0.37746602 -0.31879333 12231855
0.50650758 -0.37749758 -0.31756598 12494251
0.50576645 -0.37694386 -0.31584814 12821166
0.50581056 -0.37697536 -0.3146227 12624305
0.50585473 -0.37700689 -0.31339723 12494005
0.50589889 -0.37703839 -0.31217179 12495033
0.5043717 -0.37589887 -0.30998063 12494773
0.50363004 -0.37534475 -0.30827802 12429234
0.50288826 -0.37479052 -0.3065792 12428721
0.50293213 -0.37482184 -0.30536136 12297136
0.50574946 -0.37846589 -0.31879333 11968168
0.50500947 -0.37791064 -0.31707364 12099496
0.50204825 -0.37568867 -0.31023276 12297140
0.50130761 -0.37513292 -0.30853215 12297395
0.50135142 -0.37516421 -0.30731618 12298162
0.50217986 -0.37578264 -0.3065792 12232621
0.50055653 -0.37609223 -0.30974808 12166064
0.49986064 -0.37556607 -0.3068352 12101548
0.4997617 -0.37702024 -0.31217998 11968933
0.49902329 -0.37646142 -0.31047738 12297640
0.49984929 -0.37708277 -0.30974808 12165548
0.50180519 -0.38165176 -0.32687736 9804416
0.49469888 -0.38233304 -0.31290549 10982042
0.49551812 -0.3829636 -0.31217998 11113115
0.493949 -0.38329083 -0.31411952 11047321
0.6785751 -0.37448207 -0.17851596 16711422
0.67698783 -0.37363195 -0.17363222 16711422
0.67591757 -0.37468162 -0.17953119 16711422
0.67597067 -0.37471953 -0.17805645 16711422
0.67602378 -0.37475747 -0.17658171 16711422
0.67607695 -0.37479541 -0.17510696 16711422
0.67438519 -0.37386602 -0.17318414 16711422
0.67443818 -0.37390387 -0.1717132 16711422
0.67049342 -0.3733072 -0.18423387 16711422
0.67228788 -0.37431461 -0.18324336 16711422
0.67321169 -0.37483734 -0.1820098 16711422
0.67500663 -0.37584507 -0.18100594 16711422
0.67331767 -0.37491298 -0.17906791 16711422
0.67337066 -0.37495083 -0.17759697 16711422
0.67342365 -0.37498865 -0.17612603 16711422
0.67086285 -0.37357101 -0.17397724 16711422
0.67265826 -0.3745791 -0.17296009 16711422
0.67271119 -0.37461686 -0.17149106 16711422
0.66687441 -0.37292913 -0.18789463 16711422
0.66692698 -0.37296668 -0.18643512 16711422
0.66697955 -0.3730042 -0.18497558 16711422
0.66790181 -0.37352809 -0.18375532 16711422
0.66708475 -0.37307927 -0.18205655 16711422
0.6697467 -0.37457621 -0.1813034 16711422
0.66805971 -0.37364087 -0.17937104 16711422
0.66985226 -0.37465158 -0.17837293 16711422
0.66729504 -0.37322944 -0.17621845 16711422
0.66821766 -0.37375364 -0.17498676 16711422
0.66827029 -0.37379122 -0.17352533 16711422
0.66745275 -0.37334204 -0.17183988 16711422
0.66837561 -0.37386638 -0.17060247 16711422
0.66602552 -0.37411812 -0.18789463 16711422
0.66434127 -0.37318003 -0.18594898 16711422
0.66439366 -0.37321746 -0.18449326 16711422
0.66618323 -0.37423071 -0.18351607 16711422
0.66449857 -0.37329236 -0.18158183 16711422
0.66455102 -0.37332979 -0.18012612 16711422
0.66460341 -0.37336722 -0.17867039 16711422
0.66465586 -0.37340468 -0.17721465 16711422
0.66470832 -0.37344211 -0.17575894 16711422
0.66476077 -0.37347955 -0.17430323 16711422
0.66149837 -0.37320045 -0.1927224 16711422
0.6615507 -0.37323779 -0.19127047 16711422
0.66333723 -0.3742536 -0.19031613 16711422
0.66338968 -0.37429103 -0.1888604 16711422
0.66170758 -0.37334982 -0.18691473 16711422
0.66175985 -0.37338716 -0.18546282 16711422
0.66181219 -0.3734245 -0.18401092 16711422
0.66186446 -0.37346184 -0.182559 16711422
0.66191679 -0.37349918 -0.1811071 16711422
0.66196907 -0.37353653 -0.17965518 16711422
0.6620214 -0.37357387 -0.17820327 16711422
0.66207367 -0.37361121 -0.17675136 16711422
0.66386157 -0.37462801 -0.17575894 16711422
0.66391402 -0.37466544 -0.17430323 16711422
0.65892214 -0.37340191 -0.19221723 16711422
0.66070616 -0.37442058 -0.19127047 16711422
0.6590265 -0.37347639 -0.18932101 16711422
0.65907866 -0.37351364 -0.1878729 16711422
0.65913081 -0.37355089 -0.18642482 16711422
0.65918297 -0.37358814 -0.18497671 16711422
0.65923512 -0.37362537 -0.1835286 16711422
0.65928727 -0.37366262 -0.18208049 16711422
0.65933949 -0.37369987 -0.18063237 16711422
0.65939164 -0.3737371 -0.17918427 16711422
0.65721512 -0.37408936 -0.19196466 16711422
0.65726721 -0.37412655 -0.19051844 16711422
0.65558946 -0.37317911 -0.18857467 16711422
0.65564144 -0.37321621 -0.18713227 16711422
0.6574235 -0.37423816 -0.18617983 16711422
0.65747559 -0.37427536 -0.18473363 16711422
0.65752769 -0.37431255 -0.18328743 16711422
0.65757978 -0.37434974 -0.18184121 16711422
0.65763187 -0.37438694 -0.18039502 16711422
0.65485442 -0.37442833 -0.18568987 16711422
0.65490639 -0.37446544 -0.18424746 16711422
0.65495837 -0.37450254 -0.18280508 16711422
0.65501028 -0.37453961 -0.18136267 16711422
0.65142703 -0.37411684 -0.18495496 16711422
0.65234166 -0.37464935 -0.18376136 16711422
0.69945335 -0.37413174 -0.16106597 5457491
0.69675952 -0.37437561 -0.16216494 5523538
0.69681376 -0.37441432 -0.16065975 5523540
0.69686794 -0.37445304 -0.15915456 5523538
0.6940164 -0.3745749 -0.16475771 5719890
0.69407046 -0.37461349 -0.16325632 5654868
0.69412452 -0.37465212 -0.16175494 5589332
0.69417864 -0.37469074 -0.16025352 5589333
0.6942327 -0.37472934 -0.15875216 5589075
0.69428682 -0.37476796 -0.15725078 5523538
0.69221061 -0.37528312 -0.16604836 5456714
0.69050753 -0.37436908 -0.16413124 5327185
0.69231862 -0.37536025 -0.16304938 5261656
0.69237262 -0.37539881 -0.16154991 5196375
0.69242662 -0.37543738 -0.16005042 5262166
0.69072306 -0.37452295 -0.15814854 5393493
0.69077694 -0.37456143 -0.15665285 5392981
0.69083083 -0.3745999 -0.15515718 5392723
0.68399894 -0.37245324 -0.17326815 13013610
0.68405241 -0.37249142 -0.17178389 11565666
0.68322879 -0.37205198 -0.17008132 10117979
0.6832822 -0.3720901 -0.16859895 8735062
0.6833356 -0.37212822 -0.1671166 7221330
0.68338901 -0.37216637 -0.16563424 5710155
0.67993307 -0.37029329 -0.16330898 5313349
0.68612802 -0.37367615 -0.16329597 5000771
0.6861816 -0.37371442 -0.16180791 4926785
0.68623525 -0.37375271 -0.16031983 4863044
0.68628883 -0.37379098 -0.15883179 4995912
0.68634242 -0.37382925 -0.15734373 5193290
0.68639606 -0.37386751 -0.15585566 5259596
0.68820524 -0.37486205 -0.15476237 5325900
0.68308216 -0.37362418 -0.17475243 15588548
0.6822598 -0.37318331 -0.17304602 14667428
0.6823132 -0.37322146 -0.17156367 13812114
0.68236661 -0.37325957 -0.17008132 12823681
0.68066794 -0.37233928 -0.1681661 11901042
0.68072116 -0.37237731 -0.16668755 10913635
0.68077445 -0.37241533 -0.16520898 9926482
0.6790753 -0.37149468 -0.16330898 9200961
0.68263358 -0.37345019 -0.16266954 8540981
0.68268698 -0.37348831 -0.16118717 8078122
0.68129081 -0.37431467 -0.17601074 16711409
0.67959487 -0.37339166 -0.17408028 16708833
0.67964816 -0.37342969 -0.17260173 16378833
0.67970139 -0.37346771 -0.17112318 16047813
0.67975467 -0.37350574 -0.16964464 15520186
0.67805809 -0.37258229 -0.16773322 15057323
0.67811126 -0.3726202 -0.16625847 14594460
0.67816436 -0.37265813 -0.16478373 14132361
0.67862833 -0.37452009 -0.1770374 16711422
0.67868161 -0.37455812 -0.17555885 16711422
0.67704093 -0.37366986 -0.17215747 16514558
0.6770941 -0.3737078 -0.17068271 16383481
0.67714721 -0.37374574 -0.16920798 16118772
0.67720032 -0.37378368 -0.16773322 15854309
0.6755057 -0.37285691 -0.16582943 15656150
0.67449117 -0.37394169 -0.17024226 16711419
0.67454416 -0.37397954 -0.16877133 16711417
0.67459714 -0.37401736 -0.16730039 16711409
0.67276412 -0.37465465 -0.17002201 16711422
0.67281705 -0.37469244 -0.16855298 16711422
0.67286992 -0.37473023 -0.16708393 16711422
0.7169354 -0.37324175 -0.14530157 4997442
0.71699065 -0.37328118 -0.14376783 4997188
0.7170459 -0.37332064 -0.14223409 4996935
0.71415627 -0.37348321 -0.14800088 5128261
0.71598804 -0.37445176 -0.14683531 5128261
0.71426648 -0.37356192 -0.14494102 5062981
0.71432161 -0.37360126 -0.14341109 5062983
0.71437669 -0.37364063 -0.14188115 5062730
0.71443182 -0.37367997 -0.14035122 5062731
0.71270961 -0.37278968 -0.13847597 4996940
0.70955324 -0.37274778 -0.15183151 5260107
0.71138215 -0.37371892 -0.15068497 5260105
0.70966291 -0.37282607 -0.14878687 5259847
0.71149212 -0.37379742 -0.14763272 5194053
0.71332151 -0.37476891 -0.14647095 5194053
0.71160203 -0.37387592 -0.14458047 5194054
0.71165705 -0.37391517 -0.14305434 5194055
0.711712 -0.37395442 -0.14152822 5193801
0.71176696 -0.37399366 -0.14000209 5193802
0.71182191 -0.37403291 -0.13847597 5128011
0.71187693 -0.37407216 -0.13694984 5062475
0.70678675 -0.37297484 -0.15448897 5325902
0.70684147 -0.37301391 -0.15297045 5325902
0.70866781 -0.37398791 -0.15183151 5326156
0.70872265 -0.37402707 -0.15030919 5325642
0.70877749 -0.37406623 -0.14878687 5325895
0.70883232 -0.37410536 -0.14726456 5260101
0.71065938 -0.3750799 -0.14610659 5194310
0.708942 -0.37418368 -0.14421992 5194055
0.70899683 -0.37422284 -0.1426976 5194055
0.70905167 -0.37426198 -0.14117528 5193800
0.7091065 -0.37430114 -0.13965295 5193801
0.70916134 -0.3743403 -0.13813064 5128267
0.70319521 -0.37276614 -0.15542099 5326928
0.70324975 -0.37280506 -0.15390818 5391439
0.70507354 -0.37378198 -0.15277877 5391438
0.70512819 -0.37382096 -0.15126215 5391180
0.70518279 -0.37385997 -0.14974554 5391179
0.70612228 -0.3743681 -0.14841491 5391179
0.706177 -0.37440717 -0.14689639 5325900
0.70623171 -0.37444621 -0.14537789 5260363
0.70628637 -0.37448528 -0.14385937 5260618
0.70634109 -0.37452433 -0.14234085 5259594
0.70551062 -0.37409401 -0.14064588 5194058
0.70043975 -0.37298006 -0.15804799 5391695
0.70226079 -0.37395963 -0.15693378 5391696
0.70054847 -0.37305769 -0.15502998 5391698
0.70060283 -0.3730965 -0.15352099 5391696
0.70242429 -0.37407637 -0.15239538 5391439
0.70247877 -0.37411526 -0.15088257 5392205
0.70253325 -0.37415418 -0.14936978 5392204
0.70258778 -0.3741931 -0.14785697 5326927
0.70440996 -0.37517348 -0.14671232 5325907
0.70446455 -0.37521249 -0.14519571 5326160
0.70451921 -0.37525147 -0.1436791 5260109
0.70457381 -0.37529048 -0.14216249 5259596
0.69950771 -0.37417054 -0.15955698 5457489
0.69956207 -0.37420934 -0.15804799 5457487
0.69961643 -0.37424815 -0.15653898 5522768
0.69790614 -0.37334299 -0.15463899 5457233
0.69972515 -0.37432578 -0.15352099 5391696
0.69977951 -0.37436458 -0.15201199 5391439
0.69983387 -0.37440342 -0.15050299 5456973
0.69988823 -0.37444222 -0.148994 5391692
0.69994253 -0.37448102 -0.14748499 5326158
0.69999689 -0.37451982 -0.14597599 5326160
0.7018168 -0.3755033 -0.14483134 5391439
0.70187134 -0.37554219 -0.14331855 5325389
0.69692218 -0.37449175 -0.15764937 5457744
0.69697642 -0.37453046 -0.15614417 5457744
0.6970306 -0.37456918 -0.15463899 5391697
0.69708484 -0.37460789 -0.15313379 5391696
0.69713908 -0.3746466 -0.1516286 5457231
0.69543052 -0.37373796 -0.14974384 5522765
0.69434088 -0.37480658 -0.15574938 5458002
0.69439495 -0.37484521 -0.154248 5391697
0.69444907 -0.3748838 -0.15274662 5391695
0.69450313 -0.37492242 -0.15124522 5456718
0.69455719 -0.37496105 -0.14974384 5588300
0.69264269 -0.37559167 -0.1540525 5457746
0.69269669 -0.37563023 -0.15255302 5588815
0.73455536 -0.37208512 -0.13050193 4339000
0.7298981 -0.37141159 -0.13451715 4535873
0.729954 -0.37145147 -0.13296628 4535614
0.73180127 -0.372403 -0.1317379 4470331
0.73364884 -0.3733547 -0.13050193 4404794
0.73370498 -0.37339479 -0.12894344 4404538
0.72804576 -0.37217787 -0.13590105 4536133
0.72631264 -0.37130317 -0.13402198 4601410
0.72815734 -0.37225753 -0.13280313 4666944
0.72821313 -0.37229738 -0.13125417 4601662
0.72826892 -0.37233722 -0.12970521 4535614
0.72832471 -0.37237704 -0.12815624 4469823
0.72927535 -0.37287441 -0.12676282 4470079
0.72933125 -0.37291431 -0.12521197 4404543
0.7293871 -0.37295419 -0.1236611 4339008
0.72944295 -0.37299407 -0.12211023 4404545
0.72346061 -0.37152535 -0.13831593 4733250
0.72351611 -0.37156498 -0.13677458 4667716
0.72357166 -0.37160462 -0.13523324 4602435
0.72362715 -0.37164429 -0.13369189 4601667
0.7236827 -0.37168393 -0.13215055 4667202
0.72373819 -0.37172356 -0.13060918 4601665
0.72558087 -0.37268114 -0.12938651 4601154
0.72563648 -0.37272087 -0.12784137 4601156
0.72747958 -0.37367874 -0.12660728 4601409
0.72753537 -0.37371856 -0.12505832 4535615
0.72759116 -0.37375841 -0.12350936 4535617
0.722453 -0.3727017 -0.14139862 4800066
0.72250855 -0.37274134 -0.13985728 4734274
0.72077996 -0.37186053 -0.1379744 4734018
0.72083533 -0.37190008 -0.13643686 4668483
0.7208907 -0.37193963 -0.13489932 4668227
0.72094607 -0.37197918 -0.13336177 4667459
0.72100145 -0.37201869 -0.13182423 4667459
0.72105688 -0.37205824 -0.13028669 4667459
0.72111225 -0.37209779 -0.12874915 4732484
0.72295272 -0.3730585 -0.12752649 4732484
0.71971947 -0.37299445 -0.14258704 4931396
0.71977484 -0.373034 -0.14104949 4865859
0.71983021 -0.37307352 -0.13951194 4800067
0.71988559 -0.37311307 -0.1379744 4734531
0.71994102 -0.37315261 -0.13643686 4800067
0.71999639 -0.37319216 -0.13489932 4800067
0.72005177 -0.37323171 -0.13336177 4733252
0.72010714 -0.37327126 -0.13182423 4733509
0.72016251 -0.3733108 -0.13028669 4732998
0.72021794 -0.37335035 -0.12874915 4732741
0.71710116 -0.3733601 -0.14070036 4996935
0.71715641 -0.37339953 -0.13916662 4865863
0.71721166 -0.37343898 -0.13763289 4800071
0.71726686 -0.37347841 -0.13609916 4864839
0.71732211 -0.37351787 -0.13456541 4995909
0.71737736 -0.37355733 -0.13303168 4864835
0.71743262 -0.37359676 -0.13149793 4798788
0.71454203 -0.37375867 -0.13729136 4931148
0.71459717 -0.37379801 -0.13576142 4931148
0.71465224 -0.37383735 -0.13423149 4996935
0.7552563 -0.36518365 -0.11185702 3021592
0.75531322 -0.3652243 -0.11027572 3021592
0.75355226 -0.3643859 -0.10843281 3022104
0.75360906 -0.36442646 -0.1068553 3021847
0.75615203 -0.36735386 -0.11212623 2956059
0.75439346 -0.36651251 -0.11027572 2956312
0.75445044 -0.36655319 -0.1086944 2890773
0.75269151 -0.36571157 -0.1068553 2825232
0.75274831 -0.36575213 -0.10527779 2890508
0.75098896 -0.36491022 -0.1034501 2956048
0.75523001 -0.36864516 -0.11212623 2955032
0.7534737 -0.36780071 -0.11027572 2956568
0.75353062 -0.36784139 -0.1086944 2759192
0.75177395 -0.36699668 -0.1068553 2628628
0.75183076 -0.36703724 -0.10527779 2758672
0.75188762 -0.3670778 -0.10370029 2956049
0.75430804 -0.36993647 -0.11212623 3219222
0.75255388 -0.36908892 -0.11027572 3218968
0.75261086 -0.36912957 -0.1086944 3087643
0.75266784 -0.36917025 -0.10711309 2956568
0.7509132 -0.36832234 -0.10527779 2956309
0.75097001 -0.36836293 -0.10370029 2956306
0.75332898 -0.371187 -0.11371134 3680290
0.75338608 -0.37122777 -0.11212623 3549215
0.75163412 -0.37037712 -0.11027572 3482913
0.7516911 -0.37041777 -0.1086944 3416867
0.74993885 -0.36956686 -0.1068553 3351071
0.74999565 -0.36960745 -0.10527779 3154204
0.75234985 -0.37243751 -0.11529646 3747630
0.75240695 -0.37247828 -0.11371134 3813163
0.75246406 -0.37251905 -0.11212623 3747369
0.75071436 -0.3716653 -0.11027572 3616042
0.75077134 -0.37170598 -0.1086944 3550251
0.74902129 -0.37085196 -0.1068553 3550247
0.74907809 -0.37089252 -0.10527779 3418659
0.74950981 -0.37275016 -0.11818226 3879217
0.74956673 -0.37279081 -0.11660095 3878961
0.74962372 -0.37283149 -0.11501964 3943729
0.74968064 -0.37287217 -0.11343832 4009264
0.74793321 -0.37201536 -0.11158781 3878190
0.74799007 -0.37205592 -0.1100103 3812909
0.74804688 -0.37209648 -0.10843281 3747629
0.74810368 -0.37213707 -0.1068553 3747628
0.74667472 -0.37305701 -0.12105282 4141366
0.74853307 -0.37399769 -0.11976357 4076341
0.74858999 -0.37403834 -0.11818226 4010293
0.74684519 -0.37317872 -0.11632032 3944757
0.74690205 -0.37321928 -0.11474282 3944757
0.74695885 -0.37325987 -0.11316531 4010292
0.74521345 -0.37239984 -0.1113186 3944500
0.74527013 -0.37244031 -0.1097449 3878961
0.74575716 -0.37434211 -0.12105282 4272439
0.74581397 -0.37438267 -0.11947533 4272438
0.74587083 -0.37442324 -0.11789782 4141366
0.74412805 -0.3735604 -0.11603968 4010295
0.74418473 -0.37360087 -0.11446598 4010552
0.74424142 -0.37364134 -0.11289229 4010294
0.7424981 -0.37277812 -0.11104939 3944757
0.74107605 -0.37369362 -0.12517843 4403771
0.74113256 -0.373734 -0.12360852 4338238
0.7429859 -0.37468049 -0.12233447 4272955
0.74304259 -0.37472096 -0.12076078 4207416
0.74309927 -0.37476143 -0.11918708 4207672
0.74315596 -0.3748019 -0.11761338 4076344
0.74321264 -0.37484241 -0.11603968 3945273
0.74326938 -0.37488288 -0.11446598 3945019
0.74152845 -0.37401664 -0.11261927 4010552
0.74158496 -0.37405702 -0.11104939 4010294
0.73825568 -0.37398294 -0.12800713 4469818
0.73831213 -0.3740232 -0.12644103 4469564
0.73836851 -0.37406349 -0.12487494 4469821
0.73842496 -0.37410378 -0.12330886 4339006
0.74027598 -0.37505329 -0.12203863 4273211
0.74033254 -0.37509367 -0.12046874 4207673
0.74038911 -0.37513405 -0.11889885 4207417
0.74044561 -0.3751744 -0.11732896 4010809
0.74050218 -0.37521479 -0.11575907 3879994
0.74055874 -0.37525517 -0.11418917 3945787
0.73555297 -0.37434679 -0.12769605 4470076
0.73560923 -0.374387 -0.12613375 4404543
0.7356655 -0.37442717 -0.12457149 4404799
0.73572177 -0.37446734 -0.12300921 4404543
0.73577809 -0.37450752 -0.12144693 4404540
0.73762685 -0.37546012 -0.1201767 4339002
0.73768324 -0.37550038 -0.1186106 4339258
0.73594689 -0.37462807 -0.11676009 4338746
0.73779607 -0.37558097 -0.11547843 4339003
0.68794447 -0.37284094 -0.18609171 16711422
0.68629676 -0.37196639 -0.18264085 16380409
0.68521678 -0.37302554 -0.1885931 16711422
0.68702298 -0.37401792 -0.18758357 16711422
0.68532401 -0.37310207 -0.18561698 16711422
0.6853776 -0.37314034 -0.18412891 16711420
0.68367815 -0.37222418 -0.18217371 16711419
0.68373162 -0.37226236 -0.18068947 16709360
0.68378508 -0.37230054 -0.17920521 16576228
0.68254751 -0.37324244 -0.18959504 16711422
0.68260098 -0.37328061 -0.18811077 16711422
0.68265444 -0.37331879 -0.18662652 16711422
0.68270791 -0.37335697 -0.18514225 16711422
0.68276137 -0.37339514 -0.18365799 16711422
0.68193942 -0.37295458 -0.18194018 16711422
0.68199283 -0.37299269 -0.18045783 16711422
0.68204623 -0.37303081 -0.17897546 16645630
0.67890251 -0.3728973 -0.19330148 16711422
0.68070346 -0.37389529 -0.19231668 16711422
0.68075681 -0.3739334 -0.19083431 16711422
0.68081021 -0.37397152 -0.18935198 16711422
0.68086362 -0.37400964 -0.18786961 16711422
0.68091702 -0.37404779 -0.18638724 16711422
0.68097043 -0.3740859 -0.1849049 16711422
0.68102384 -0.37412402 -0.18342254 16711422
0.68107718 -0.37416214 -0.18194018 16711422
0.68113059 -0.37420028 -0.18045783 16711422
0.67624414 -0.37310094 -0.19427866 16711422
0.67455196 -0.37217593 -0.19230637 16711422
0.67460495 -0.37221375 -0.19083545 16711422
0.67814904 -0.37417784 -0.19034438 16711422
0.67820227 -0.37421587 -0.18886583 16711422
0.67825556 -0.3742539 -0.18738727 16711422
0.67830878 -0.37429193 -0.18590872 16711422
0.67836207 -0.37432995 -0.18443017 16711422
0.6784153 -0.37436798 -0.1829516 16711422
0.67846859 -0.37440601 -0.18147305 16711422
0.67852181 -0.37444404 -0.17999451 16711422
0.67348444 -0.37322289 -0.19819015 16711422
0.67528009 -0.37422645 -0.19722816 16711422
0.67359042 -0.37329856 -0.19524828 16711422
0.67364341 -0.37333637 -0.19377731 16711422
0.67282486 -0.37289119 -0.19205758 16711422
0.67287773 -0.37292895 -0.19058855 16711422
0.67293066 -0.37296674 -0.1891195 16711422
0.67298359 -0.37300453 -0.18765047 16711422
0.67565197 -0.37449196 -0.18690494 16711422
0.67570508 -0.3745299 -0.18543018 16711422
0.67575818 -0.37456784 -0.18395545 16711422
0.67755532 -0.37557247 -0.1829516 16711422
0.67586446 -0.37464368 -0.18100594 16711422
0.67165285 -0.37386122 -0.20087181 16711422
0.67257589 -0.37438336 -0.19966109 16711422
0.67175871 -0.37393677 -0.19793373 16711422
0.67181158 -0.37397456 -0.19646469 16711422
0.67186451 -0.37401235 -0.19499566 16711422
0.67191744 -0.37405014 -0.19352663 16711422
0.67022949 -0.37311879 -0.19156002 16711422
0.6702823 -0.37315646 -0.1900948 16711422
0.67033505 -0.37319416 -0.18862955 16711422
0.67038786 -0.37323183 -0.18716432 16711422
0.67044061 -0.37326953 -0.18569909 16711422
0.67074549 -0.37502018 -0.20234086 16711422
0.66906059 -0.37408632 -0.20035142 16711422
0.67085129 -0.37509575 -0.19940276 16711422
0.66916615 -0.37416169 -0.19742095 16711422
0.6692189 -0.37419936 -0.19595574 16711422
0.66753328 -0.373265 -0.19398531 16711422
0.66932446 -0.37427473 -0.19302526 16711422
0.6676386 -0.37334016 -0.19106245 16711422
0.66769123 -0.37337777 -0.18960102 16711422
0.66804999 -0.37516689 -0.20474711 16711422
0.66636741 -0.37423 -0.20275387 16711422
0.66642004 -0.37426761 -0.20129243 16711422
0.66647267 -0.37430519 -0.19983101 16711422
0.66652536 -0.37434277 -0.19836959 16711422
0.66657799 -0.37438035 -0.19690816 16711422
0.66663063 -0.37441793 -0.19544673 16711422
0.66581517 -0.37396795 -0.19373274 16711422
0.66586775 -0.3740055 -0.19227321 16711422
0.66592038 -0.37404305 -0.19081369 16711422
0.66597295 -0.37408057 -0.18935417 16711422
0.66139376 -0.37312576 -0.19562621 16711422
0.66144609 -0.3731631 -0.19417429 16711422
0.70436388 -0.37498027 -0.1727111 5720919
0.70359051 -0.37458837 -0.16946149 5655636
0.70198834 -0.37376511 -0.16449781 5589327
0.70254445 -0.37570685 -0.1740113 5786201
0.70259911 -0.37574586 -0.17249468 5720918
0.70353532 -0.37625638 -0.1711926 5721171
0.70094496 -0.37488076 -0.16903621 5721172
0.70099944 -0.37491965 -0.1675234 5655638
0.70105392 -0.37495857 -0.16601062 5589842
0.7011084 -0.37499747 -0.16449781 5524047
0.69939899 -0.37409291 -0.16257499 5523281
0.69429475 -0.37292704 -0.18127297 10909523
0.69434887 -0.37296566 -0.17977157 8016186
0.69440293 -0.37300426 -0.17827019 6696738
0.69445699 -0.37304288 -0.17676879 5388861
0.69627154 -0.37402719 -0.17571169 5456728
0.69632578 -0.37406591 -0.1742065 5524567
0.69638002 -0.37410462 -0.17270128 5459031
0.6964342 -0.37414333 -0.1711961 5459029
0.69648844 -0.37418205 -0.16969091 5524564
0.69654268 -0.37422076 -0.16818571 5590101
0.69659686 -0.37425947 -0.16668051 5590102
0.6966511 -0.37429819 -0.16517533 5655891
0.69670534 -0.3743369 -0.16367014 5589328
0.69067711 -0.37265056 -0.18357506 16046560
0.69073099 -0.37268904 -0.18207939 15449015
0.69078487 -0.37272748 -0.18058372 13540751
0.69083875 -0.37276596 -0.17908803 11633262
0.69089264 -0.37280443 -0.17759237 8268365
0.69094652 -0.37284291 -0.17609668 4922952
0.69275868 -0.3738302 -0.17504527 4985412
0.69281268 -0.37386876 -0.17354579 5129797
0.69286668 -0.37390733 -0.1720463 5190982
0.69380003 -0.37442043 -0.17076325 5258312
0.69385415 -0.37445906 -0.16926187 5391178
0.69390821 -0.37449765 -0.16776048 5522509
0.69396228 -0.37453628 -0.1662591 5588560
0.68799824 -0.37287933 -0.18459983 16711419
0.68635035 -0.37200466 -0.18115279 16049634
0.68640393 -0.37204292 -0.17966472 15060171
0.68645751 -0.37208119 -0.17817666 14005154
0.68651116 -0.37211946 -0.17668858 11833721
0.68832064 -0.37310955 -0.17564858 9662548
0.6883744 -0.3731479 -0.17415671 9001008
0.6901843 -0.37413827 -0.17310531 8339507
0.69023818 -0.37417674 -0.17160964 7618102
0.69204855 -0.37516743 -0.17054681 6962491
0.69210255 -0.37520599 -0.16904733 6307137
0.69215655 -0.37524456 -0.16754785 5586501
0.68383855 -0.37233871 -0.17772095 16441033
0.68389201 -0.37237689 -0.17623669 15453870
0.68394548 -0.37241507 -0.17475243 14463116
0.68209964 -0.37306893 -0.17749311 16580081
0.6830287 -0.37358603 -0.17623669 16051428
0.68118399 -0.3742384 -0.17897546 16711422
0.6812374 -0.37427652 -0.17749311 16711415
0.72653103 -0.37300149 -0.1529396 4931139
0.72189778 -0.37230527 -0.15681212 4996941
0.72195333 -0.37234494 -0.15527077 4931661
0.72379154 -0.37330404 -0.15410899 4931400
0.72384721 -0.37334377 -0.15256383 4865604
0.72211987 -0.37246385 -0.15064672 4865605
0.71916562 -0.37259901 -0.15796244 5128270
0.72100127 -0.37356094 -0.15681212 5062990
0.71927637 -0.37267807 -0.15488736 4997454
0.72111231 -0.37364021 -0.15372941 4997450
0.72116786 -0.37367985 -0.15218806 4931654
0.72122335 -0.37371951 -0.15064672 4931653
0.72127891 -0.37375915 -0.14910537 4997188
0.71816051 -0.37377244 -0.16103753 5259596
0.71643817 -0.37288672 -0.1591052 5259597
0.71649343 -0.37292618 -0.15757146 5193805
0.71654868 -0.3729656 -0.15603773 5193805
0.71660393 -0.37300506 -0.15450399 5128525
0.71665919 -0.37304452 -0.15297025 5062986
0.71849281 -0.37400973 -0.15181229 5063239
0.71854824 -0.37404928 -0.15027474 5062981
0.71860361 -0.37408882 -0.14873719 5062724
0.71865898 -0.37412834 -0.14719966 5062723
0.71543556 -0.37405729 -0.16217268 5325901
0.71371537 -0.37316844 -0.16024032 5325645
0.71377051 -0.37320778 -0.15871039 5325645
0.71204996 -0.37231866 -0.15678947 5260109
0.71210492 -0.3723579 -0.15526333 5260364
0.71215987 -0.37239715 -0.15373722 5194316
0.71399093 -0.37336516 -0.15259066 5128522
0.71404606 -0.37340453 -0.15106073 5128776
0.71410114 -0.37344387 -0.14953081 5128774
0.71266013 -0.37429672 -0.16483012 5457231
0.71271527 -0.37433606 -0.16330019 5456974
0.71099734 -0.37344414 -0.16136783 5456974
0.7110523 -0.37348339 -0.15984172 5391438
0.7093339 -0.37259117 -0.15792079 5391437
0.70761532 -0.37169874 -0.15600747 5325901
0.70944357 -0.37266946 -0.15487614 5325901
0.70949841 -0.37270862 -0.15335383 5260109
0.70988977 -0.37453038 -0.16747233 5589328
0.70994473 -0.37456962 -0.16594622 5589072
0.70999974 -0.3746089 -0.16442008 5589071
0.70828396 -0.37371385 -0.16248775 5457487
0.7083388 -0.37375298 -0.16096543 5391695
0.70839363 -0.37379214 -0.15944311 5391951
0.70667738 -0.37289673 -0.157526 5326926
0.70673203 -0.3729358 -0.15600747 5326414
0.70712429 -0.37475821 -0.17009935 5589842
0.70717913 -0.37479737 -0.16857702 5589587
0.70723397 -0.37483653 -0.16705471 5654865
0.7072888 -0.37487566 -0.16553238 5654863
0.70557529 -0.37397757 -0.16360003 5720144
0.70563 -0.37401661 -0.16208151 5523537
0.70480043 -0.37358692 -0.16036181 5392464
0.70485502 -0.37362593 -0.1588452 5326927
0.70490968 -0.37366495 -0.15732859 5326927
0.70618403 -0.37595922 -0.17162165 5655635
0.70452797 -0.37509742 -0.16815557 5589846
0.70369977 -0.37466639 -0.16642825 5589586
0.70204282 -0.373804 -0.16298498 5588817
0.7020973 -0.37384292 -0.16147219 5523027
0.70215183 -0.37388182 -0.15995939 5391953
0.73769158 -0.37358016 -0.14366798 4732993
0.73954082 -0.37452838 -0.14244723 4601923
0.73606771 -0.37279284 -0.138632 4470854
0.73433077 -0.37192479 -0.13673583 4470338
0.73259354 -0.37105653 -0.13484724 4470590
0.73264956 -0.37109652 -0.13329257 4470331
0.73449922 -0.37204504 -0.13206041 4405305
0.73493391 -0.37390482 -0.14488113 4732739
0.73499018 -0.373945 -0.14331885 4732741
0.73504651 -0.37398517 -0.14175656 4667207
0.73689348 -0.37493649 -0.1405358 4601929
0.73515904 -0.37406555 -0.138632 4536396
0.73342431 -0.3731944 -0.13673583 4470342
0.72838157 -0.37223622 -0.15157662 4865346
0.72843742 -0.3722761 -0.15002577 4799554
0.73028094 -0.37322965 -0.14883925 4799298
0.73033696 -0.37326965 -0.14728458 4798786
0.73039299 -0.37330961 -0.14572991 4864322
0.73044896 -0.37334961 -0.14417525 4799042
0.73050499 -0.3733896 -0.14262058 4798531
0.72877258 -0.37251544 -0.14072061 4732740
0.72882849 -0.37255532 -0.13916972 4732998
0.72798997 -0.37213802 -0.13745001 4602184
0.72658682 -0.3730413 -0.15139064 4865605
0.72664261 -0.37308115 -0.14984168 4865351
0.7266984 -0.37312099 -0.14829272 4865092
0.72764707 -0.37361929 -0.14692403 4864833
0.72681004 -0.37320065 -0.1451948 4930369
0.72686583 -0.3732405 -0.14364584 4865089
0.72692162 -0.37328035 -0.14209688 4800065
0.72519124 -0.37240294 -0.1402026 4733761
0.72395855 -0.37342325 -0.14947352 4931141
0.72401422 -0.37346298 -0.14792837 4996419
0.72406983 -0.37350273 -0.14638321 4996160
0.72234195 -0.37262243 -0.14448132 4996417
0.72239751 -0.37266207 -0.14293998 4865602
0.7213344 -0.37379879 -0.14756402 4997186
0.72138995 -0.37383842 -0.14602268 4997184
0.7196641 -0.37295491 -0.14412457 4997186
0.762218 -0.36497957 -0.122221 3152405
0.76045394 -0.36414832 -0.12034005 3283732
0.76051116 -0.36418918 -0.11875113 3152916
0.76129156 -0.36627707 -0.122221 2956565
0.7613489 -0.36631802 -0.12062828 2956565
0.75958693 -0.36548358 -0.11875113 3021845
0.75964421 -0.36552444 -0.11716221 3021845
0.75788182 -0.36468974 -0.11529646 3087381
0.76218206 -0.36845288 -0.12251305 2823960
0.76042253 -0.36761552 -0.12062828 2694424
0.76047987 -0.3676565 -0.11903555 2890520
0.76053727 -0.36769745 -0.11744282 3087125
0.7587772 -0.3668597 -0.11557328 3087635
0.7570169 -0.36602178 -0.11371134 3087381
0.76125342 -0.36975348 -0.12251305 3087899
0.76131094 -0.36979455 -0.12091652 2956827
0.76136845 -0.36983562 -0.11932 3021852
0.75961083 -0.36899495 -0.11744282 3152662
0.75966823 -0.36903593 -0.11585009 3086865
0.75791025 -0.36819497 -0.11398436 3021334
0.76026732 -0.37101302 -0.12410959 3614499
0.76032478 -0.37105408 -0.12251305 3417121
0.75856966 -0.37021053 -0.12062828 3285536
0.75862706 -0.37025148 -0.11903555 3219487
0.7586844 -0.37029245 -0.11744282 3218714
0.7569288 -0.36944851 -0.11557328 3086870
0.75698608 -0.3694894 -0.11398436 2955287
0.75933868 -0.37231362 -0.12410959 3812393
0.75939614 -0.37235469 -0.12251305 3615527
0.75764328 -0.37150803 -0.12062828 3484452
0.75770062 -0.37154898 -0.11903555 3418402
0.75775802 -0.37158996 -0.11744282 3417886
0.75600463 -0.37074292 -0.11557328 3351323
0.75606185 -0.37078378 -0.11398436 3285016
0.75648737 -0.37264165 -0.12699918 3944498
0.75654471 -0.37268263 -0.12540646 3944240
0.75660211 -0.37272358 -0.12381373 4009773
0.75665945 -0.37276456 -0.122221 3878699
0.75671685 -0.37280551 -0.12062828 3747369
0.75677425 -0.37284648 -0.11903555 3681832
0.75683159 -0.37288746 -0.11744282 3615526
0.7550804 -0.37203732 -0.11557328 3615012
0.75550359 -0.37389818 -0.12859191 4010554
0.75375557 -0.37304565 -0.12669572 4010551
0.75381279 -0.37308651 -0.1251068 4010293
0.75387001 -0.37312737 -0.12351789 4010034
0.75392729 -0.37316826 -0.12192896 3944239
0.75398451 -0.37320912 -0.12034005 3813166
0.75404173 -0.37324998 -0.11875113 3747630
0.75409895 -0.37329084 -0.11716221 3747630
0.75091398 -0.37336192 -0.1295625 4207418
0.75097108 -0.37340268 -0.12797739 4141881
0.74922496 -0.37254679 -0.1260888 4076087
0.74928194 -0.37258747 -0.12450749 4076342
0.74933892 -0.37262815 -0.12292618 4075572
0.74939585 -0.3726688 -0.12134488 4010290
0.74945283 -0.37270948 -0.11976357 3944754
0.74807733 -0.37367231 -0.13241403 4404028
0.74813432 -0.37371299 -0.13083272 4338238
0.74639058 -0.37285414 -0.12894034 4207163
0.74644744 -0.3728947 -0.12736285 4207160
0.74650425 -0.3729353 -0.12578534 4207160
0.74656111 -0.37297586 -0.12420784 4206904
0.74661791 -0.37301645 -0.12263034 4141367
0.74704367 -0.37487918 -0.13557665 4273718
0.74710059 -0.37491986 -0.13399534 4339000
0.74535942 -0.3740581 -0.13209535 4404281
0.74361783 -0.37319613 -0.13020296 4338234
0.74367452 -0.3732366 -0.12862927 4272697
0.7437312 -0.37327707 -0.12705557 4337976
0.74378788 -0.37331754 -0.12548187 4403513
0.74384457 -0.37335801 -0.12390817 4337979
0.74570036 -0.37430152 -0.12263034 4272441
0.74421453 -0.3751809 -0.13840537 4404541
0.7442714 -0.37522146 -0.13682786 4339003
0.74253243 -0.37435669 -0.13492405 4339257
0.74258912 -0.37439716 -0.13335036 4338999
0.74084985 -0.37353212 -0.13145798 4338998
0.74090636 -0.3735725 -0.12988809 4338742
0.74096292 -0.37361288 -0.12831821 4338487
0.74101949 -0.37365326 -0.12674831 4403769
0.73819929 -0.37394264 -0.12957321 4404792
0.69551247 -0.37348521 -0.19678438 16711422
0.69556671 -0.37352392 -0.19527918 16711422
0.69458276 -0.37467268 -0.19828957 16711422
0.69288069 -0.37376398 -0.19628684 16711422
0.69293475 -0.3738026 -0.19478546 16711422
0.69035387 -0.37241974 -0.19254915 16711422
0.68729961 -0.37238052 -0.20399417 16711422
0.68910676 -0.37336892 -0.20301889 16711422
0.68916065 -0.37340739 -0.2015232 16711422
0.68921453 -0.37344584 -0.20002754 16711422
0.68926841 -0.37348431 -0.19853185 16711422
0.68932229 -0.37352279 -0.19703618 16711422
0.69113034 -0.37451181 -0.19603805 16711422
0.69118434 -0.37455037 -0.19453856 16711422
0.69123834 -0.37458894 -0.19303909 16711422
0.68959165 -0.37371513 -0.18955778 16711422
0.68457359 -0.37256625 -0.20644993 16711422
0.68462718 -0.37260452 -0.20496187 16711422
0.68468076 -0.37264282 -0.20347379 16711422
0.68823677 -0.37458736 -0.20301889 16711422
0.68653935 -0.37367257 -0.20101044 16711422
0.68659306 -0.37371096 -0.19951856 16711422
0.68664682 -0.37374932 -0.19802669 16711422
0.68670052 -0.3737877 -0.19653481 16711422
0.68675429 -0.37382606 -0.19504294 16711422
