# .PCD v0.7 - Point Cloud Data file format
VERSION 0.7
FIELDS x y z rgba
SIZE 4 4 4 4
TYPE F F F U
COUNT 1 1 1 1
WIDTH 88
HEIGHT 1
VIEWPOINT 0 0 0 1 0 0 0
POINTS 88
DATA ascii
0.23813336 -0.0904762 0.76000005 12168377
0.23958096 -0.0904762 0.76000005 12234170
0.23813336 -0.089028575 0.76000005 12036534
0.23895048 -0.088794284 0.75800002 12036535
0.24102859 -0.089028575 0.76000005 11905463
0.22974953 -0.087696187 0.76100004 12235202
0.23119906 -0.087696187 0.76100004 12300477
0.23264858 -0.087696187 0.76100004 12103352
0.23523811 -0.087580957 0.76000005 12037047
0.23668572 -0.087580957 0.76000005 12167861
0.23750667 -0.08735048 0.75800002 12102068
0.23895048 -0.08735048 0.75800002 11970740
0.24039428 -0.08735048 0.75800002 11905204
0.2418381 -0.08735048 0.75800002 11774134
0.22595619 -0.085906669 0.75800002 12235450
0.22830001 -0.086246669 0.76100004 12235195
0.22974953 -0.086246669 0.76100004 12169661
0.23089525 -0.086133331 0.76000005 12103610
0.23234287 -0.086133331 0.76000005 11972023
0.23379049 -0.086133331 0.76000005 11840438
0.23461905 -0.085906669 0.75800002 12036790
0.23606287 -0.085906669 0.75800002 12298677
0.23688 -0.08568 0.75600004 12102068
0.23832001 -0.08568 0.75600004 11970739
0.23976001 -0.08568 0.75600004 11839923
0.2412 -0.08568 0.75600004 11774133
0.24264002 -0.08568 0.75600004 11774391
0.22451238 -0.084462859 0.75800002 12104121
0.22595619 -0.084462859 0.75800002 12103866
0.2274 -0.084462859 0.75800002 12169145
0.22884382 -0.084462859 0.75800002 12103097
0.22968002 -0.084240004 0.75600004 12037047
0.23112001 -0.084240004 0.75600004 11905718
0.23256001 -0.084240004 0.75600004 11839926
0.23369049 -0.084128574 0.75500005 12036534
0.23544002 -0.084240004 0.75600004 12167605
0.23688 -0.084240004 0.75600004 12036532
0.23800477 -0.084128574 0.75500005 11905203
0.23976001 -0.084240004 0.75600004 11839667
0.24088097 -0.084128574 0.75500005 11774132
0.24231906 -0.084128574 0.75500005 11708341
0.22392 -0.082800001 0.75600004 12038072
0.22536001 -0.082800001 0.75600004 12038329
0.22680001 -0.082800001 0.75600004 12103096
0.22824 -0.082800001 0.75600004 12037303
0.2293762 -0.082690477 0.75500005 11971254
0.23020287 -0.08247143 0.75300002 11905461
0.23132953 -0.082361907 0.75200003 11905460
0.23307143 -0.08247143 0.75300002 11970995
0.23450571 -0.08247143 0.75300002 12102066
0.23593999 -0.08247143 0.75300002 11971249
0.23737429 -0.08247143 0.75300002 11904945
0.23880857 -0.08247143 0.75300002 11839410
0.24024285 -0.08247143 0.75300002 11773874
0.24167714 -0.08247143 0.75300002 11708338
0.22362383 -0.081252381 0.75500005 11971768
0.22416763 -0.080929525 0.75200003 11971512
0.22500001 -0.080714293 0.75000006 11971510
0.22703239 -0.080929525 0.75200003 11905717
0.22846477 -0.080929525 0.75200003 11905460
0.22928573 -0.080714293 0.75000006 11839668
0.23071429 -0.080714293 0.75000006 11774130
0.2327619 -0.080929525 0.75200003 11840177
0.23419429 -0.080929525 0.75200003 11840431
0.23562667 -0.080929525 0.75200003 11839662
0.23705906 -0.080929525 0.75200003 11773615
0.23849145 -0.080929525 0.75200003 11707825
0.23992382 -0.080929525 0.75200003 11642032
0.24135619 -0.080929525 0.75200003 11510704
0.22410001 -0.078968577 0.74700004 11905461
0.22552286 -0.078968577 0.74700004 11839925
0.22724953 -0.079074286 0.74800003 11839668
0.22867428 -0.079074286 0.74800003 11774131
0.22979143 -0.078968577 0.74700004 11708339
0.23152381 -0.079074286 0.74800003 11644082
0.23294857 -0.079074286 0.74800003 11642801
0.23500001 -0.079285719 0.75000006 11641775
0.23579811 -0.079074286 0.74800003 11707310
0.23785715 -0.079285719 0.75000006 11576494
0.23928572 -0.079285719 0.75000006 11510443
0.2407143 -0.079285719 0.75000006 11378856
0.22694573 -0.077545717 0.74700004 11773876
0.22836858 -0.077545717 0.74700004 11642803
0.22917621 -0.077338107 0.74500006 11577267
0.23059525 -0.077338107 0.74500006 11510708
0.2320143 -0.077338107 0.74500006 11509682
0.23406002 -0.077545717 0.74700004 11509937
0.23627144 -0.077338107 0.74500006 11444395
