# .PCD v0.7 - Point Cloud Data file format
VERSION 0.7
FIELDS x y z h s v
SIZE 4 4 4 4 4 4
TYPE F F F F F F
COUNT 1 1 1 1 1 1
WIDTH 138
HEIGHT 1
VIEWPOINT 0 0 0 1 0 0 0
POINTS 138
DATA ascii
1.4882519 -0.36520606 -0.47431555 332.72726 0.13253012 83
1.4827533 -0.36417988 -0.45320207 306 0.11235955 89
1.4830488 -0.36439085 -0.44499865 354.54544 0.12087912 91
1.4866549 -0.36744297 -0.47431555 348 0.12048193 83
1.474488 -0.3645274 -0.46492502 346.15384 0.15476191 84
1.4745861 -0.36459744 -0.46220195 345 0.14117648 85
1.4746842 -0.36466748 -0.45947894 333.33334 0.10714286 84
1.3467313 -0.38233566 0.24668714 30 0.5 84
1.3468208 -0.38239959 0.24917233 35.121948 0.48809522 84
1.2695445 -0.36513367 0.38820046 28 0.88235295 17
1.2815706 -0.36445782 -0.64339066 8.5714293 0.23333333 90
1.2801516 -0.36644515 -0.64339066 348 0.21978022 91
1.2753339 -0.36514097 -0.63602138 6.3157897 0.21348314 89
1.2690196 -0.36574537 -0.63111061 0 0.1744186 86
1.2587293 -0.36517718 -0.62424177 8 0.1724138 87
1.2588159 -0.36523902 -0.62183839 350.52631 0.21348314 89
1.2589025 -0.36530083 -0.61943501 351 0.22222222 90
1.2406354 -0.38341418 -0.6270563 7.5 0.17204301 93
1.2296556 -0.38248837 -0.61494559 356.47058 0.17525773 97
1.2244248 -0.38325429 -0.61060703 0 0.15841584 101
1.1128587 -0.36559796 -0.56443709 62.142857 0.14659686 191
0.90357298 -0.36590073 -0.60928893 3.75 0.20253165 79
0.90363979 -0.36594838 -0.60743546 355.38461 0.16249999 80
0.89209479 -0.36536673 -0.57858539 339 0.18181819 110
0.8564865 -0.36448556 -0.4985888 319.20001 0.1388889 180
0.85661399 -0.36457658 -0.49504942 337.89474 0.099476442 191
0.84168601 -0.36504692 0.0055634528 345 0.31578946 38
0.84362632 -0.3659057 0.0072846725 344 0.39473686 38
0.83588076 -0.3643038 0.0021414377 355.38461 0.38235295 34
0.8387565 -0.36557418 0.0038498449 6.6666665 0.29032257 31
0.83295959 -0.36482069 0.00044495496 356.47058 0.5 34
0.835298 -0.36498302 -0.27104226 60 0.090551183 254
0.83350968 -0.36421874 -0.26872742 121.2766 0.18503937 254
0.83191466 -0.36615527 -0.0012467217 0 0.4375 32
0.82998675 -0.3645739 -0.26099744 9.375 0.24615385 130
0.82432747 -0.36459625 -0.002915259 0 0.4375 32
0.82560658 -0.36455458 -0.25132895 9.333334 0.3488372 129
0.82142395 -0.36509061 -0.0045832023 355 0.41379312 29
0.82191092 -0.36475605 -0.24879006 26 0.28037384 107
0.82197201 -0.36479965 -0.24709457 27.096773 0.29245284 106
0.82203311 -0.36484325 -0.24539907 21.290321 0.29807693 104
0.81566834 -0.36428699 -0.0078872303 338.57144 0.46666667 30
0.81852508 -0.36557892 -0.0062435288 0 0.39285713 28
0.81926489 -0.36544594 -0.24315655 353.6842 0.2 95
0.81760412 -0.36475399 -0.23754591 353.33334 0.19565217 92
0.81404221 -0.36502051 -0.23169601 352.17392 0.27380952 84
0.81410283 -0.36506376 -0.23001385 357.27274 0.26506025 83
0.81232136 -0.36428097 -0.22781509 357.14285 0.25301206 83
0.81238186 -0.36432415 -0.22613673 351.42856 0.25301206 83
0.80995178 -0.36527944 -0.0095086014 0 0.5 28
0.80968636 -0.3649483 -0.22227487 346.36365 0.27500001 80
0.80974668 -0.3649914 -0.22060031 350 0.30000001 80
0.80796653 -0.36420482 -0.21842819 352.5 0.30379745 79
0.80515367 -0.36486107 -0.012764562 7.0588236 0.56666666 30
0.80707049 -0.36574525 -0.011140388 4 0.53571427 28
0.80453724 -0.36453092 -0.20935668 4.6153846 0.34666666 75
0.80227965 -0.36531797 -0.014381124 8.5714293 0.5 28
0.80191153 -0.36517915 -0.20389444 2.5 0.33333334 72
0.80019379 -0.36442783 -0.20011249 355.55554 0.369863 73
0.80132222 -0.3666589 -0.014381126 8 0.51724136 29
0.7956782 -0.3641831 -0.19589387 2.7272727 0.3283582 67
0.79382902 -0.36497974 -0.015897434 16 0.53571427 28
0.79306322 -0.36481091 -0.19050395 5 0.35820895 67
0.79312253 -0.36485326 -0.18885794 11.538462 0.38805971 67
0.78912443 -0.36456028 -0.017448395 8 0.55555558 27
0.78959495 -0.36505067 -0.18328205 3.3333333 0.30000001 60
0.78782189 -0.36424577 -0.18122029 2.7272727 0.3548387 62
0.78627497 -0.36498556 -0.019028805 13.333333 0.66666669 27
0.78509891 -0.36477071 -0.17916617 0 0.3548387 62
0.78515774 -0.3648127 -0.17753348 0 0.3548387 62
0.78521651 -0.36485469 -0.1759008 357.27274 0.3548387 62
0.78527534 -0.36489668 -0.17426811 347.5 0.39344263 61
0.7856282 -0.36514863 -0.16447198 27.692308 0.47272727 55
0.78385562 -0.36433938 -0.16245973 14.4 0.45454547 55
0.78158683 -0.36454505 -0.020553123 9.2307692 0.5 26
0.77948332 -0.36412442 -0.15521549 8.181818 0.40000001 55
0.77682924 -0.36467049 -0.1516162 9 0.3773585 53
0.77505451 -0.36496794 -0.022036083 348 0.25 20
0.77594668 -0.36602974 -0.14999872 356.47058 0.34 50
0.77435344 -0.36533451 -0.14319116 356.66666 0.36000001 50
0.77172983 -0.36412477 -0.13946868 16.799999 0.49019608 51
0.77027577 -0.36441362 -0.02672112 17.142859 0.5 28
0.77216953 -0.36532345 -0.025184477 4 0.53571427 28
0.77222723 -0.36536461 -0.02358414 8.5714293 0.53846157 26
0.7706787 -0.36535195 -0.14268459 0 0.36000001 50
0.77073663 -0.36539331 -0.14107664 6 0.40000001 50
0.76908576 -0.36465228 -0.1359303 13.636364 0.44 50
0.76644558 -0.36517313 -0.13240713 0 0.33333334 48
0.76468039 -0.36434579 -0.13049573 348.75 0.33333334 48
0.7647379 -0.36438683 -0.12889919 328.23529 0.36170211 47
0.76647198 -0.36605799 -0.029842874 16.363636 0.44 25
0.80588812 -0.38309681 -0.46092743 264.54547 0.147651 149
0.80601126 -0.3831847 -0.45750982 347.5 0.12371134 194
0.7621032 -0.36489764 -0.12540646 10.909091 0.47826087 46
0.7621606 -0.36493859 -0.12381373 12.5 0.52173913 46
0.762218 -0.36497957 -0.122221 11.111111 0.5625 48
0.80328578 -0.38376409 -0.45478588 345 0.12565444 191
0.80334717 -0.38380793 -0.45308089 330 0.13471502 193
0.75788182 -0.36468974 -0.11529646 16.153847 0.55319148 47
0.7552563 -0.36518365 -0.11185702 8.181818 0.47826087 46
0.75355226 -0.3643859 -0.10843281 13.636364 0.47826087 46
0.75098896 -0.36491022 -0.1034501 22.758621 0.64444447 45
0.74934244 -0.36414886 -0.098490261 354.54544 0.46808511 47
0.74978232 -0.36487719 -0.035608053 346.15384 0.44827586 29
0.74983877 -0.36491749 -0.034041967 8.5714293 0.46666667 30
0.74848586 -0.36546811 -0.096920364 0 0.43478259 46
0.7450633 -0.36425316 -0.040110413 345.88235 0.53125 32
0.746939 -0.36518285 -0.038646083 338.82352 0.54838711 31
0.74417323 -0.36512959 -0.090201326 14.4 0.55555558 45
0.74247265 -0.36432028 -0.086864643 16.153847 0.55319148 47
0.74264109 -0.36444053 -0.082189217 14.4 0.54347825 46
0.74228358 -0.36459017 -0.041567132 4 0.5 30
0.73997927 -0.36485705 -0.080433846 15.555555 0.5869565 46
0.73950857 -0.36492118 -0.04301624 0 0.53125 32
0.73737746 -0.36530703 -0.07713522 16.153847 0.5777778 45
0.73743337 -0.36534694 -0.075584359 17.5 0.54545456 44
0.73658425 -0.3649385 -0.073942654 0 0.38636363 44
0.7366401 -0.36497831 -0.072393693 331.76471 0.38636363 44
0.73669589 -0.36501816 -0.070844732 0 0.37777779 45
0.73494148 -0.36416104 -0.069125518 17.5 0.53333336 45
0.73499715 -0.3642008 -0.067580357 17.5 0.53333336 45
0.73505282 -0.36424053 -0.066035204 16.799999 0.54347825 46
0.73764437 -0.36569542 -0.044512417 0 0.5 30
0.73240131 -0.36463869 -0.064331211 16.153847 0.55319148 47
0.73120213 -0.36417332 -0.047259402 10.588236 0.48571429 35
0.73306757 -0.36511442 -0.045835033 355.38461 0.43333334 30
0.72986478 -0.3651095 -0.05955974 337.89474 0.43181819 44
0.72992015 -0.36514905 -0.058022197 356.8421 0.43181819 44
0.72997552 -0.3651886 -0.056484655 15 0.54545456 44
0.72822392 -0.36432412 -0.054811109 0 0.38636363 44
0.72827917 -0.36436358 -0.053277373 336 0.43478259 46
0.72844493 -0.36448193 -0.048676163 16.363636 0.55000001 40
0.72864121 -0.38410279 -0.4885481 280 0.19834711 121
0.72527331 -0.38234875 -0.48304313 45 0.34782609 115
0.66085196 -0.38365009 -0.38403475 325 0.59340662 182
0.65824002 -0.38382605 -0.38452104 23.529411 0.22767857 224
0.49551812 -0.3829636 -0.31217998 336.52173 0.13609467 169
0.493949 -0.38329083 -0.31411952 339.13043 0.13690476 168
