# .PCD v0.7 - Point Cloud Data file format
VERSION 0.7
FIELDS x y z rgba
SIZE 4 4 4 4
TYPE F F F U
COUNT 1 1 1 1
WIDTH 1111
HEIGHT 1
VIEWPOINT 0 0 0 1 0 0 0
POINTS 1111
DATA ascii
0.63149118 -0.30664736 -0.12906431 12627910
0.63068485 -0.30630559 -0.12758431 14931922
0.62987822 -0.30596349 -0.1261081 15656670
0.62814742 -0.30517226 -0.12445264 16378862
0.62826383 -0.30527833 -0.12316702 16447486
0.62745613 -0.30493531 -0.12170215 16514814
0.62664807 -0.30459198 -0.12024106 16514814
0.62399083 -0.30334949 -0.11843284 16580350
0.62318176 -0.30300522 -0.1169831 16645886
0.62144762 -0.3022109 -0.11536547 16711422
0.62063766 -0.30186585 -0.11392517 16711422
0.61982739 -0.30152047 -0.11248866 16711400
0.61994207 -0.30162495 -0.11122194 16445395
0.62005675 -0.30172947 -0.10995521 16172228
0.62017143 -0.30183396 -0.1086885 14792629
0.61750871 -0.30058652 -0.10694078 13409955
0.61762291 -0.30069056 -0.10567973 12491921
0.61773705 -0.3007946 -0.10441868 11573883
0.61692488 -0.30044749 -0.10300296 10454118
0.61611241 -0.30010009 -0.10159103 9336681
0.61437291 -0.29930097 -0.100032 8876653
0.6135596 -0.29895279 -0.098629527 8482156
0.61367291 -0.29905605 -0.097377934 8351084
0.61285901 -0.29870737 -0.095981114 8285031
0.61204481 -0.29835841 -0.094588093 8088163
0.61215776 -0.29846135 -0.093340278 7891551
0.6104154 -0.29765958 -0.091813393 7891035
0.61052799 -0.29776219 -0.090569355 7890523
0.61064065 -0.29786482 -0.089325324 7628124
0.61075324 -0.29796746 -0.088081285 7430501
0.61086589 -0.2980701 -0.086837247 7299438
0.61097854 -0.29817271 -0.085593209 7168358
0.61109114 -0.29827535 -0.084349178 7037022
0.61120379 -0.29837799 -0.083105139 6904668
0.61317444 -0.29938784 -0.082109913 6904410
0.61328739 -0.29949078 -0.080862097 6904151
0.61432976 -0.30004764 -0.079734907 6773333
0.6181612 -0.30196708 -0.078960143 6642513
0.61827499 -0.3020708 -0.077702872 6511182
0.61931872 -0.3026289 -0.076560557 6378573
0.61850268 -0.30227825 -0.075188331 6182733
0.61954671 -0.30283669 -0.074042231 5986120
0.61873031 -0.3024857 -0.07267379 5657156
0.6197747 -0.30304444 -0.071523912 5329483
0.61988866 -0.3031483 -0.070264749 5067090
0.61907178 -0.30279687 -0.068901978 4739137
0.61918557 -0.30290058 -0.067644708 4672560
0.61929941 -0.30300429 -0.066387437 4671524
0.6194132 -0.30310804 -0.065130167 4143640
0.61952704 -0.30321175 -0.063872896 3615779
0.61964089 -0.30331546 -0.062615618 3286318
0.62161863 -0.30433175 -0.061542887 2891304
0.62173283 -0.30443579 -0.060281835 2825507
0.62636399 -0.30747706 -0.040285371 1576714
0.62367362 -0.30620435 -0.038843941 1577231
0.6228525 -0.30584913 -0.037526537 1773076
0.62296653 -0.305953 -0.036267377 2035220
0.62308049 -0.30605689 -0.035008218 1773076
0.62413025 -0.30662048 -0.03379973 1577236
0.62424445 -0.30672452 -0.032538678 1577492
0.62435859 -0.30682856 -0.031277623 1643281
0.62634522 -0.30785292 -0.030106574 1577230
0.62645972 -0.30795726 -0.028841738 1445647
0.62657422 -0.3080616 -0.027576908 1314321
0.62481523 -0.30724469 -0.026233414 1249809
0.62399244 -0.30688789 -0.02493492 1249041
0.62316936 -0.30653083 -0.023640206 1314064
0.62328321 -0.30663458 -0.022382936 1314063
0.62339699 -0.30673829 -0.021125665 1314312
0.62351084 -0.306842 -0.019868391 1379842
0.61612236 -0.30325314 -0.018387232 1510919
0.6152969 -0.30289391 -0.017118983 1773068
0.6154092 -0.30299622 -0.01587873 2035469
0.61552143 -0.30309853 -0.014638475 1838862
0.62126458 -0.30597407 -0.013520763 1642253
0.61950058 -0.3051526 -0.012232102 1511693
0.61961353 -0.30525553 -0.010984279 1380876
0.62066549 -0.30582112 -0.0097512165 1315083
0.62077862 -0.30592424 -0.0085015083 1183755
0.62089175 -0.30602732 -0.0072518 1314571
0.62100488 -0.30613041 -0.0060020844 1445658
0.62111801 -0.30623353 -0.0047523836 1576489
0.62123114 -0.30633661 -0.0035026751 1707542
0.62134433 -0.30643973 -0.0022529594 1641732
0.62145746 -0.30654281 -0.0010032586 1575950
0.62157059 -0.3066459 0.00024645706 1641497
0.62544578 -0.30860528 0.0015052166 1707021
0.62273759 -0.30731636 0.0027500233 1576194
0.62285089 -0.3074196 0.004001624 1511171
0.62202311 -0.3070583 0.0052452898 1380101
0.62307751 -0.30762613 0.0065048253 1315077
0.62130803 -0.30679965 0.0077329944 1249286
0.62236255 -0.30736759 0.0089944219 1183752
0.62247568 -0.30747068 0.010244123 1380362
0.62258881 -0.3075738 0.011493831 1511942
0.62270194 -0.30767688 0.012743539 1379587
0.62281507 -0.30778 0.013993255 1183237
0.62387067 -0.30834889 0.015266023 1182984
0.62492651 -0.30891809 0.016542574 1182991
0.62503999 -0.3090215 0.017796068 1182998
0.6242106 -0.30865866 0.019020818 1183265
0.6243239 -0.30876192 0.020272419 1249580
0.62349391 -0.30839857 0.021491505 1382171
0.62266362 -0.30803496 0.022706807 1380107
0.62277657 -0.30813789 0.023954622 1380360
0.62100202 -0.3073068 0.02512607 1248261
0.61922675 -0.30647504 0.026289955 1182985
0.61839491 -0.30611002 0.027488248 1313806
0.61850703 -0.30621219 0.028726617 1510412
0.61861914 -0.30631435 0.029964978 1379338
0.62534368 -0.30969119 0.031536818 1248778
0.62545699 -0.30979446 0.032788411 1314058
0.62179041 -0.30802521 0.033834331 1380105
0.62095785 -0.30765954 0.035025053 1444873
0.620125 -0.30729356 0.036212005 1509897
0.62118274 -0.30786449 0.037509352 1379081
0.62034959 -0.30749822 0.038692512 1248271
0.62046182 -0.30760053 0.039932765 1444885
0.62057412 -0.30770284 0.041173026 1641490
0.62163258 -0.30827439 0.042477936 1510415
0.62269139 -0.30884624 0.04378663 1379342
0.62280405 -0.30894887 0.045030653 1248782
0.61344975 -0.30435467 0.045571443 1118735
0.61356068 -0.30445573 0.046796557 1052688
0.61651272 -0.30596679 0.048244011 1052175
0.61662412 -0.30606833 0.049474817 1183246
0.61578822 -0.30569956 0.050627727 1313806
0.61400431 -0.30486 0.051697087 1379599
0.61411524 -0.30496109 0.052922215 1379856
0.61422616 -0.30506214 0.054147344 1380370
0.61812931 -0.30704695 0.055714283 1381135
0.61824089 -0.30714864 0.056946967 1315341
0.61835247 -0.30725032 0.058179665 1249805
0.6175155 -0.30688062 0.059321236 1380622
0.61667824 -0.30651063 0.060459021 1578251
0.61773837 -0.3070837 0.061782848 1578249
0.61690074 -0.30671337 0.062916845 1578245
0.61416423 -0.3053987 0.063849702 1578242
0.61427498 -0.30549961 0.065072939 1578502
0.61533529 -0.30607286 0.066398643 1709322
0.61544621 -0.30617392 0.067623757 1840402
0.61555713 -0.30627498 0.0688489 1775131
0.615668 -0.30637607 0.070074044 1710098
0.61577892 -0.30647713 0.071299158 1709834
0.61779076 -0.30752444 0.07274814 1775893
0.61790204 -0.30762583 0.073977038 1905185
0.61801326 -0.30772722 0.075205967 2035479
0.61622256 -0.30688143 0.076199688 1774350
0.61918694 -0.3084037 0.077783279 1578258
0.61834705 -0.30803135 0.078892693 1643798
0.61845833 -0.30813274 0.080121607 1709592
0.61381131 -0.30586311 0.080724753 1709850
0.6139217 -0.3059637 0.08194422 1710106
0.61403215 -0.30606431 0.083163671 1840666
0.61319041 -0.30569023 0.084252298 1970705
0.61425292 -0.3062655 0.085602589 1970696
0.61436331 -0.30636612 0.086822055 1971736
0.6135211 -0.30599156 0.087905005 2037289
0.61458415 -0.30656731 0.089260958 2102560
0.61564755 -0.30714336 0.090620697 2036503
0.61575812 -0.30724412 0.091842055 1970447
0.61586869 -0.30734488 0.093063399 2167815
0.61597925 -0.30744565 0.094284758 2430734
0.6170435 -0.30802247 0.095653921 2168597
0.61715424 -0.30812338 0.096877173 1972766
0.61726499 -0.30822429 0.098100424 2300711
0.61642152 -0.30784866 0.099170148 2692641
0.6155777 -0.30747274 0.1002361 2496539
0.61759722 -0.30852705 0.10177013 2365986
0.61675322 -0.30815095 0.10283421 2431274
0.61590892 -0.30777454 0.10389446 2496792
0.61506426 -0.30739781 0.10495096 2496263
0.6161297 -0.30797574 0.1063334 2496271
0.61624008 -0.30807635 0.10755283 2300695
0.61539495 -0.30769917 0.10860367 2038811
0.61550516 -0.30779961 0.10982123 2366240
0.61179167 -0.30598763 0.11034911 2693668
0.61285734 -0.3065657 0.11173342 2825769
0.61392331 -0.30714408 0.11312153 2957607
0.61116391 -0.30580851 0.11380103 3154726
0.61222988 -0.30638692 0.11518914 3352615
0.61233938 -0.30648673 0.11639916 3483945
0.61244893 -0.30658656 0.11760915 3615528
0.60873002 -0.30476958 0.11807653 3615527
0.61171073 -0.30630684 0.11984162 3551019
0.6118201 -0.30640653 0.12104973 3616815
0.61192948 -0.30650619 0.12225784 3683385
0.61203885 -0.30660585 0.12346597 4011075
0.61214823 -0.3067055 0.12467408 4338745
0.6122576 -0.30680519 0.12588219 4207663
0.61236697 -0.30690485 0.12709031 4142384
0.61247635 -0.30700451 0.12829842 4141874
0.61258572 -0.3071042 0.12950653 4207408
0.61173624 -0.30672309 0.13051008 4404782
0.61280447 -0.30730352 0.13192277 4668207
0.61003631 -0.30595997 0.13250585 4470577
0.61206383 -0.30702162 0.13412875 4339756
0.61217302 -0.30712113 0.13533497 3487272
0.61324197 -0.30770218 0.13675523 2700594
0.61431116 -0.30828354 0.13817923 3487805
0.61538076 -0.30886522 0.13960706 4275003
0.61549044 -0.30896521 0.14081894 4734010
0.60599643 -0.30424356 0.13981505 5193019
0.60610443 -0.30434197 0.14100806 5193021
0.60717314 -0.30492285 0.14242642 5193271
0.60728133 -0.30502144 0.1436213 5259058
0.60738951 -0.30512002 0.14481618 5324856
0.60749769 -0.30521858 0.14601104 5325119
0.60760587 -0.30531716 0.14720593 5390911
0.6086756 -0.30589899 0.14863561 5325631
0.60782218 -0.30551431 0.14959569 5260339
0.60793036 -0.30561289 0.15079056 5260071
0.60707647 -0.30522776 0.15174496 5260080
0.6052599 -0.30435839 0.1524532 5062713
0.60729247 -0.30542457 0.15413095 4865340
0.60932565 -0.30649137 0.15581623 5062207
0.60847121 -0.30610576 0.15676497 5259327
0.60761648 -0.30571985 0.15770991 5258815
0.60965067 -0.30678755 0.15940654 5324600
0.60975903 -0.30688629 0.16060333 5127985
0.61083084 -0.30746999 0.16205572 4996917
0.60612118 -0.30514324 0.16196688 4996666
0.60622889 -0.30524135 0.16315608 4996403
0.60537255 -0.30485404 0.164084 4996653
0.60548007 -0.304952 0.16527133 5062703
0.60848051 -0.3065072 0.16725382 5062962
0.60858852 -0.30660561 0.16844681 5063476
0.60966116 -0.30719009 0.16990867 4798518
0.60976934 -0.30728865 0.17110352 4467511
0.60891253 -0.30690086 0.17202578 4401720
0.60709018 -0.30602622 0.17266974 4401721
0.60623246 -0.30563766 0.17358254 5000251
0.60537446 -0.30524877 0.17449158 5654332
0.60451609 -0.30485958 0.17539683 5456958
0.60365736 -0.30447003 0.17629828 5324861
0.60473043 -0.30505484 0.17776391 5259325
0.60387135 -0.304665 0.17866157 5193786
0.60301197 -0.30427486 0.17955551 5128248
0.60311872 -0.30437219 0.18073523 5062967
0.60225886 -0.3039816 0.18162346 4995895
0.60236549 -0.30407876 0.18280131 4929594
0.60247213 -0.30417594 0.18397918 4667453
0.60354596 -0.3047615 0.18545428 4405315
0.60268539 -0.30437028 0.18633491 4667209
0.60375959 -0.30495617 0.18781376 4994622
0.60483408 -0.30554235 0.18929638 4798260
0.60397321 -0.30515081 0.19017327 4667955
0.60407996 -0.30524814 0.19135302 4864818
0.60418677 -0.30534548 0.19253281 5127474
0.60429358 -0.30544278 0.19371253 4864562
0.6044004 -0.30554011 0.19489229 4601904
0.60450721 -0.30563745 0.19607204 4602414
0.60461402 -0.30573478 0.1972518 4602160
0.60472083 -0.30583209 0.19843158 4601907
0.60385835 -0.30543914 0.19929141 4601909
0.60299551 -0.3050459 0.20014749 4601912
0.60310203 -0.30514294 0.20132346 4602424
0.60320848 -0.30523995 0.20249949 4471352
0.60331494 -0.30533695 0.20367543 4339766
0.60342139 -0.30543396 0.20485143 4273973
0.60352784 -0.305531 0.2060274 4208181
0.6036343 -0.305628 0.20720334 4142645
0.60374075 -0.30572501 0.20837934 4143663
0.60384727 -0.30582201 0.20955528 4142890
0.60395372 -0.30591905 0.21073128 4207913
0.60406017 -0.30601606 0.21190728 4273193
0.60416663 -0.30611306 0.21308322 4338725
0.60427308 -0.3062101 0.21425922 4141602
0.60437953 -0.30630711 0.21543519 4010527
0.60448599 -0.30640411 0.21661116 4010524
0.60264844 -0.30551559 0.21708685 4010786
0.60275453 -0.30561227 0.21825901 4010792
0.60091597 -0.30472285 0.21872337 4010799
0.60004926 -0.304326 0.21953598 3879478
0.60015488 -0.30442223 0.22070253 3748403
0.60026044 -0.30451846 0.22186902 3813937
0.60036606 -0.30461472 0.22303557 3878704
0.60047168 -0.30471095 0.22420207 3747631
0.60836428 -0.30875927 0.22829069 3617067
0.60847127 -0.30885679 0.22947235 3419175
0.60760456 -0.30845994 0.23028496 3154708
0.60868526 -0.30905172 0.23183562 2826753
0.60879219 -0.30914921 0.23301728 2564636
0.60792494 -0.30875191 0.23382422 3288888
0.60218531 -0.30587953 0.23274432 4014408
0.60131651 -0.30548084 0.23353425 4537433
0.60142213 -0.30557707 0.23470077 5060681
0.60250264 -0.30616871 0.23624955 4468793
0.60260844 -0.30626512 0.23741795 3878454
0.60173893 -0.30586576 0.23820031 3943987
0.60184455 -0.305962 0.23936686 3943731
0.66143936 -0.30798116 -0.52501214 16711422
0.65981609 -0.30728275 -0.52219766 16711422
0.65994495 -0.3074002 -0.52077407 16711422
0.66182709 -0.30833444 -0.52072984 16711422
0.66020274 -0.30763507 -0.51792675 16711422
0.66033161 -0.30775252 -0.5165031 16711422
0.65958339 -0.30746114 -0.51439548 16711422
0.6605894 -0.30798742 -0.51365578 16711422
0.65984082 -0.30769572 -0.51155192 16711422
0.65996957 -0.30781302 -0.51013017 16711422
0.66009825 -0.30793029 -0.50870842 16711422
0.65847105 -0.30722833 -0.50593746 16711422
0.65859944 -0.3073453 -0.50451952 16711422
0.65872782 -0.30746228 -0.50310153 16711422
0.65885615 -0.30757928 -0.50168353 16711422
0.65634859 -0.30646542 -0.49826452 16711422
0.65208238 -0.30452988 -0.49352658 16711422
0.6522094 -0.3046456 -0.49212369 16711422
0.65788287 -0.30786356 -0.48131689 16711422
0.65624905 -0.30715555 -0.47861969 16711422
0.65637654 -0.30727175 -0.47721118 16711422
0.65474159 -0.30656272 -0.47452536 16711422
0.65134323 -0.30502757 -0.47057346 16711422
0.65235126 -0.30555573 -0.4698112 16711422
0.65247792 -0.30567116 -0.46841213 16711422
0.6543684 -0.30661303 -0.46827525 16711422
0.65449542 -0.30672878 -0.46687239 16711422
0.6528579 -0.30601743 -0.46421489 16711422
0.65298456 -0.30613282 -0.46281585 16711422
0.65487641 -0.30707598 -0.46266383 16711422
0.65500343 -0.3071917 -0.461261 16711422
0.65513039 -0.30730742 -0.45985818 16711422
0.64642644 -0.30328 -0.45227668 16711422
0.64655173 -0.30339417 -0.45089272 16711422
0.64579356 -0.3030937 -0.44889471 16711422
0.64591867 -0.30320773 -0.44751263 16711422
0.6469276 -0.30373669 -0.4467409 16711422
0.64616889 -0.30343574 -0.44474852 16711422
0.64452583 -0.30271927 -0.44215345 16711422
0.64465058 -0.30283296 -0.44077519 16711422
0.64755404 -0.30430755 -0.43982118 16711422
0.64767933 -0.30442172 -0.43843722 16711422
0.64792997 -0.30465007 -0.43566933 16711422
0.64805526 -0.30476424 -0.4342854 16711422
0.6518485 -0.30665922 -0.43387556 16711422
0.65286028 -0.30719081 -0.43307167 16711422
0.65298641 -0.30730575 -0.43167827 16711422
0.65311259 -0.3074207 -0.43028489 16711422
0.65501136 -0.30837023 -0.43005529 16711422
0.65513784 -0.30848548 -0.42865816 16711422
0.64584982 -0.30509707 -0.39641064 16711422
0.64508432 -0.3047899 -0.39449394 16711422
0.64609838 -0.30532354 -0.39366549 16711422
0.64266223 -0.30375394 -0.3901315 16711422
0.64367604 -0.30428743 -0.38930491 16711420
0.64558071 -0.30524221 -0.38901111 16580091
0.64659542 -0.30577648 -0.38817504 16448251
0.6458289 -0.30546838 -0.38626969 16513531
0.64684391 -0.30600294 -0.38542986 16579836
0.6460771 -0.30569455 -0.38352826 16580349
0.64709246 -0.30622941 -0.38268468 16645115
0.64721674 -0.30634266 -0.38131207 16513530
0.64644933 -0.30603379 -0.37941614 16447991
0.64657342 -0.30614686 -0.37804544 16247285
0.64669752 -0.30625996 -0.37667474 16051444
0.64682162 -0.30637303 -0.37530401 15986675
0.64516103 -0.30564064 -0.3729018 15920370
0.64260727 -0.3044847 -0.36999321 16050928
0.64273047 -0.30459699 -0.36863196 16183025
0.64196092 -0.30428612 -0.36676058 16119538
0.64208394 -0.30439827 -0.36540124 16113888
0.64220703 -0.30451041 -0.36404186 13815246
0.64858359 -0.30758825 -0.36621347 11516348
0.64870787 -0.3077015 -0.36484087 13739690
0.64883214 -0.30781475 -0.36346829 16042956
0.64895642 -0.30792797 -0.36209568 16050159
0.64908063 -0.30804121 -0.36072308 16115178
0.64920491 -0.30815443 -0.35935047 15588838
0.64843482 -0.30784306 -0.35748479 15064292
0.64676982 -0.30710661 -0.35513172 14997474
0.64689356 -0.30721939 -0.35376477 14997472
0.64433259 -0.30605692 -0.35093561 14931934
0.64356071 -0.30574399 -0.34908885 14866138
0.64368379 -0.30585614 -0.3477295 14931670
0.64201599 -0.30511716 -0.34540662 14997210
0.64124316 -0.30480328 -0.34357122 14932191
0.64226145 -0.30534083 -0.34269544 14931934
0.63969642 -0.30417463 -0.33991173 14931166
0.6416108 -0.30513832 -0.33951008 14931163
0.64173335 -0.30524999 -0.33815643 14865881
0.64275235 -0.30578816 -0.33727312 14865113
0.64287508 -0.30590001 -0.33591753 14734041
0.6429978 -0.30601183 -0.33456197 14667991
0.64312053 -0.30612364 -0.33320639 14536150
0.64503753 -0.30708972 -0.33277649 14470100
0.64874977 -0.30891091 -0.33326086 14404307
0.6479761 -0.30859628 -0.33143494 14404038
0.64540672 -0.30742615 -0.32869837 14272697
0.64552975 -0.3075383 -0.32733902 14136232
0.63487697 -0.3025158 -0.32053912 13868951
0.63589615 -0.30305409 -0.3196539 13677184
0.63601732 -0.30316454 -0.31831533 13813353
0.63793552 -0.30413169 -0.3178722 13942173
0.64165175 -0.30595645 -0.31831312 13874386
0.64177394 -0.30606782 -0.3169632 13876685
0.63919908 -0.30489272 -0.31428719 13747913
0.63932079 -0.30500361 -0.31294292 13680329
0.64124125 -0.30597278 -0.3124752 13680074
0.64226276 -0.30651328 -0.31156355 13746378
0.64418435 -0.30748352 -0.31108257 13549515
0.6443069 -0.30759522 -0.30972889 13418185
0.64262938 -0.30684736 -0.30751383 13417671
0.64185143 -0.30652884 -0.30573511 13417158
0.64287382 -0.30707011 -0.30481398 13351365
0.64299601 -0.30718148 -0.30346408 13350854
0.64311826 -0.30729285 -0.30211416 13614279
0.64324045 -0.30740419 -0.30076423 13876167
0.64336264 -0.30751556 -0.29941434 13680328
0.64528733 -0.30848861 -0.29889932 13483462
0.64360708 -0.3077383 -0.29671451 13352389
0.64372927 -0.30784965 -0.29536459 13286596
0.64385152 -0.30796102 -0.29401469 13286595
0.64307183 -0.30764091 -0.29225487 13286598
0.64319384 -0.30775213 -0.29090688 13549001
0.64331585 -0.30786332 -0.28955886 13810888
0.64163303 -0.30711067 -0.28740236 13548488
0.64085209 -0.30678946 -0.2856558 13351364
0.64097363 -0.3069002 -0.28431344 13285568
0.64109516 -0.30701095 -0.28297111 13220030
0.6412167 -0.30712166 -0.28162876 13154747
0.63953155 -0.30636698 -0.27949685 13088702
0.63965279 -0.3064774 -0.27815828 13022656
0.63977396 -0.30658782 -0.27681971 12956604
0.63989514 -0.30669826 -0.27548113 12890551
0.64544022 -0.30940875 -0.27646583 12890552
0.64556241 -0.30952013 -0.27511591 13021625
0.64206737 -0.30789685 -0.27223229 13218726
0.64218885 -0.3080076 -0.27088994 10791059
0.6395964 -0.30681643 -0.26840866 8366248
0.6397174 -0.3069267 -0.26707196 8432062
0.6398384 -0.30703697 -0.2657353 8503745
0.63995945 -0.30714723 -0.2643986 11065796
0.63826978 -0.30638835 -0.26231778 13676985
0.63748491 -0.30606356 -0.26061469 13158318
0.63760543 -0.30617335 -0.25928369 12693163
0.63772589 -0.30628318 -0.25795269 12560809
0.63784641 -0.30639297 -0.25662169 12494252
0.63796693 -0.30650279 -0.25529069 11969456
0.63808739 -0.30661258 -0.25395966 11444908
0.63730133 -0.30628666 -0.2522698 11641512
0.63742167 -0.30639634 -0.25094068 11837606
0.63754195 -0.30650598 -0.24961159 11837091
0.63856941 -0.30705181 -0.24863565 11837093
0.63596821 -0.30585268 -0.24625078 11771815
0.63608819 -0.30596203 -0.24492545 11706533
0.63530058 -0.30563471 -0.24325262 11641251
0.63632816 -0.30618069 -0.24227478 11641256
0.63644814 -0.30629003 -0.24094945 11575726
0.63656813 -0.30639935 -0.23962411 11508907
0.63668811 -0.30650869 -0.23829879 11443112
0.6368081 -0.30661803 -0.23697345 11377319
0.63692808 -0.30672738 -0.23564811 11311781
0.63704807 -0.30683669 -0.23432277 11311521
0.63898587 -0.30782175 -0.23366219 11245214
0.64001536 -0.30836946 -0.23266359 11244957
0.63922656 -0.30804107 -0.23100396 11375772
0.64025635 -0.30858907 -0.23000157 11572375
0.63946718 -0.30826035 -0.22834572 11441554
0.63958752 -0.30836999 -0.22701661 11309978
0.63697797 -0.30716324 -0.22472441 11440802
0.63527745 -0.30639452 -0.22276266 11573671
0.63175571 -0.30474693 -0.22017398 11376301
0.62914306 -0.30353737 -0.21791582 11244967
0.63199329 -0.30496341 -0.21754979 11113633
0.6330229 -0.30551124 -0.21654926 10982302
0.63496387 -0.30649912 -0.21585466 10916508
0.63508314 -0.30660781 -0.21453689 10851227
0.63520247 -0.30671653 -0.21321912 11113627
0.63532174 -0.30682525 -0.21190135 11375770
0.63635272 -0.30737433 -0.21088572 11179161
0.63647217 -0.3074832 -0.20956603 11047832
0.63659167 -0.30759206 -0.20824637 10916503
0.63579893 -0.3072601 -0.20663026 10850713
0.6331811 -0.30604586 -0.20442878 10785691
0.63329989 -0.3061541 -0.20311669 10784920
0.63433146 -0.30670366 -0.20209537 10653845
0.63445038 -0.30681208 -0.20078139 10521233
0.63456935 -0.30692047 -0.19946741 10127245
0.63377506 -0.30658707 -0.19786829 9801107
0.63389385 -0.30669531 -0.19655618 9997465
0.63401264 -0.30680358 -0.19524409 10259349
0.63413143 -0.30691183 -0.19393198 10520466
0.63425022 -0.30702007 -0.19261989 10848144
0.63071275 -0.30535811 -0.19020516 10585998
0.62991655 -0.30502301 -0.18862684 10323858
0.63003445 -0.30513048 -0.1873242 10258327
0.63106704 -0.30568099 -0.18629155 10192783
0.6302703 -0.30534542 -0.18471891 10127496
0.63130325 -0.30589622 -0.18368247 10060940
0.6341666 -0.30733427 -0.18317087 9995921
0.63245469 -0.30655512 -0.18133582 9929871
0.63257295 -0.30666289 -0.18002939 9864333
0.63177562 -0.30632672 -0.17846432 9798544
0.63189375 -0.30643433 -0.17715979 9864852
0.63201183 -0.30654195 -0.17585525 9929625
0.63212997 -0.30664957 -0.17455071 10126494
0.63133168 -0.30631259 -0.17299509 10323850
0.63236612 -0.30686483 -0.17194164 7826551
0.63248426 -0.30697244 -0.1706371 5335427
0.63260233 -0.30708006 -0.16933256 4351632
0.63272047 -0.30718768 -0.16802804 3374492
0.62916994 -0.30551389 -0.16575699 7050408
0.62745261 -0.30472985 -0.16398053 10722712
0.62940472 -0.30572787 -0.16316302 10060680
0.62952214 -0.30583486 -0.16186605 9469320
0.62963957 -0.30594188 -0.16056907 9469320
0.63067502 -0.30649498 -0.15950428 9535370
0.63079256 -0.30660215 -0.15820542 9535883
0.63091016 -0.30670929 -0.15690655 9601156
0.63286477 -0.30770966 -0.15606068 9600893
0.63114536 -0.3069236 -0.15430881 9600642
0.6312629 -0.30703077 -0.15300995 9666183
0.63413763 -0.30847913 -0.15237358 9731721
0.6314981 -0.30724508 -0.15041222 9731723
0.63069636 -0.30690485 -0.14889631 9798286
0.6317333 -0.30745938 -0.14781448 9863825
0.63185084 -0.30756652 -0.14651562 9995404
0.63104856 -0.30722582 -0.14500539 10126471
0.63208604 -0.30778083 -0.14391789 10258309
0.6312834 -0.30743983 -0.14241144 10324099
0.62955993 -0.30665019 -0.14070304 10389639
0.62967706 -0.30675688 -0.13940986 10520972
0.62979412 -0.30686358 -0.13811666 10652556
0.62991118 -0.30697024 -0.13682346 10850445
0.62910718 -0.30662799 -0.13533212 11113612
0.62830281 -0.30628544 -0.13384457 11377804
0.62841958 -0.30639181 -0.13255516 11640711
0.62853628 -0.30649817 -0.13126574 12034691
0.62865305 -0.30660456 -0.12997633 12496031
0.62876976 -0.30671093 -0.12868692 13350588
0.62888652 -0.30681729 -0.12739751 14207949
0.62900323 -0.30692366 -0.1261081 15195615
0.62727499 -0.30612963 -0.12445264 16182249
0.6273914 -0.3062357 -0.12316702 16249074
0.62750781 -0.30634174 -0.12188138 16313584
0.62670124 -0.30599716 -0.12041841 16378094
0.62312484 -0.3042998 -0.11843284 16446449
0.62231702 -0.30395415 -0.1169831 16580340
0.62243241 -0.30405927 -0.11570881 16711414
0.61977679 -0.30281052 -0.11392517 16711417
0.61989164 -0.30291519 -0.11265656 16710884
0.62000644 -0.30301985 -0.11138795 16710351
0.6201213 -0.30312452 -0.11011933 16693443
0.61931187 -0.30277726 -0.1086885 15254199
0.61942655 -0.30288175 -0.10742177 13870752
0.61861652 -0.30253404 -0.10599661 12822410
0.61873102 -0.30263838 -0.10473177 11834232
0.61699551 -0.30183768 -0.10315762 10783590
0.61618441 -0.301489 -0.10174379 9730409
0.61537308 -0.30114004 -0.10033376 9073772
0.61363578 -0.30033779 -0.098778516 8416367
0.61374927 -0.30044121 -0.097525023 8416882
0.61386275 -0.30054462 -0.096271537 8416873
0.61397624 -0.30064803 -0.095018044 8089184
0.61223722 -0.29984418 -0.093481697 7826780
0.61142397 -0.29949349 -0.092092462 7761240
0.60968381 -0.29868859 -0.090569355 7694424
0.60979646 -0.29879123 -0.089325324 7497048
0.61176288 -0.29980233 -0.088349007 7299682
0.61187583 -0.29990527 -0.087101191 7169132
0.61198878 -0.30000821 -0.085853368 7037541
0.61210179 -0.30011114 -0.084605552 6840671
0.61221474 -0.30021408 -0.083357736 6709085
0.61325544 -0.30077207 -0.082234323 6774363
0.61336863 -0.30087516 -0.080984615 6904658
0.61348176 -0.30097827 -0.079734907 6773834
0.61545146 -0.30199236 -0.078722678 6642763
0.61835027 -0.30346268 -0.07781972 6511693
0.61846429 -0.30356658 -0.076560557 6378308
0.61857826 -0.30367044 -0.075301394 6182716
0.61962128 -0.30423048 -0.074153416 5984824
0.61880624 -0.30387819 -0.072783075 5459508
0.61984962 -0.30443853 -0.071631305 4931382
0.61903423 -0.30408597 -0.070264749 4403512
0.6182186 -0.30373311 -0.068901978 3942706
0.61833245 -0.30383682 -0.067644708 3744299
0.61844623 -0.30394053 -0.066387437 3546915
0.61856008 -0.30404428 -0.065130167 3218714
0.61867386 -0.30414799 -0.063872896 2891809
0.61878771 -0.3042517 -0.062615618 2630440
0.6208365 -0.3061187 -0.03998474 1642508
0.62095034 -0.30622241 -0.03872747 1642766
0.62106413 -0.30632615 -0.037470195 1773073
0.62117797 -0.30642986 -0.036212925 1969425
0.62129182 -0.30653358 -0.034955654 1641745
0.6214056 -0.30663732 -0.033698384 1380113
0.62245405 -0.30720228 -0.032489892 1511697
0.62256801 -0.30730617 -0.031230723 1708311
0.62268203 -0.30741003 -0.029971568 1642781
0.622796 -0.30751392 -0.028712405 1576983
0.62291002 -0.30761781 -0.027453242 1510930
0.62208855 -0.30725965 -0.026154755 1511442
0.6222024 -0.30736336 -0.024897484 1445905
0.6204446 -0.3065424 -0.023569116 1380113
0.62055808 -0.30664581 -0.022315623 1379856
0.62067151 -0.30674922 -0.021062134 1379597
0.620785 -0.30685261 -0.019808644 1379594
0.61434299 -0.30371514 -0.018359251 1379599
0.6135186 -0.30335435 -0.017092889 1839380
0.61363071 -0.30345652 -0.015854528 2363665
0.61842787 -0.3058759 -0.014727734 2167310
0.62041527 -0.30690607 -0.013520763 1970702
0.61865383 -0.30608177 -0.012232102 1774349
0.61876678 -0.30618474 -0.010984279 1577737
0.61981744 -0.30675176 -0.0097512165 1446662
0.61993057 -0.30685484 -0.0085015083 1314824
0.6191057 -0.30649355 -0.0072408323 1380107
0.61921865 -0.30659649 -0.0059930091 1510932
0.62027001 -0.30716413 -0.0047523836 1707294
0.62038314 -0.30726725 -0.0035026751 1969681
0.62049627 -0.30737033 -0.0022529594 1773317
0.61967051 -0.30700827 -0.0010017384 1576459
0.61978346 -0.3071112 0.00024608488 1641746
0.62083566 -0.30767962 0.0014961653 1772810
0.62094879 -0.30778274 0.0027458735 1707522
0.62106198 -0.30788583 0.0039955741 1707779
0.61835587 -0.30659112 0.0052214866 1708037
0.61846846 -0.30669376 0.0064655175 1708038
0.61764097 -0.30633008 0.0076978435 1446152
0.61869377 -0.30689901 0.0089535937 1249550
0.62068719 -0.30793473 0.010228634 1510931
0.61891901 -0.30710426 0.01144167 1773579
0.62091315 -0.30814064 0.012724258 1510659
0.6210261 -0.30824357 0.013972081 1248771
0.62113905 -0.30834651 0.015219897 1247748
0.62407595 -0.3098515 0.016542574 1248778
0.62418944 -0.30995491 0.017796068 1183248
0.62336129 -0.30959067 0.019020818 1183255
0.62253273 -0.3092261 0.020241797 1380639
0.62264585 -0.30932921 0.021491505 1576981
0.62181687 -0.30896416 0.022706807 1445899
0.62004524 -0.30813056 0.023882039 1380103
0.61921531 -0.30776474 0.025087886 1313795
0.61744249 -0.30693001 0.02624988 1248523
0.61566895 -0.30609468 0.02740431 1444371
0.61578071 -0.30619654 0.028638901 1707021
0.61589247 -0.30629838 0.029873477 1444871
0.61506087 -0.305931 0.031060422 1248262
0.61894655 -0.3079102 0.032491229 1444870
0.61811513 -0.30754298 0.033680074 1707015
0.61917108 -0.30811483 0.034971744 1838089
0.61833936 -0.3077473 0.036156796 1968903
0.61939567 -0.30831948 0.037452251 1706757
0.61856359 -0.30795163 0.038633525 1510155
0.61867571 -0.30805379 0.039871894 1772561
0.61878783 -0.30815595 0.041110262 2034960
0.61889994 -0.30825812 0.042348623 1773071
0.61523181 -0.30647719 0.043320823 1510923
0.61156231 -0.30469498 0.044277865 1445640
0.61167306 -0.30479589 0.045501109 1380626
0.6117838 -0.3048968 0.046724338 1250333
0.61189449 -0.30499771 0.047947574 1183507
0.61295116 -0.30557019 0.049246814 1248777
0.61306208 -0.30567124 0.050471943 1379851
0.61317301 -0.3057723 0.051697087 1446157
0.61328387 -0.30587339 0.052922215 1577230
0.6133948 -0.30597445 0.054147344 1511951
0.6153993 -0.30702022 0.055543382 1511947
0.61645746 -0.30759409 0.056859639 1511688
0.61562181 -0.30722299 0.058001209 1511690
0.6119439 -0.30543312 0.058865618 1511949
0.61300194 -0.30600685 0.060179967 1577483
0.61216509 -0.30563465 0.061308321 1577482
0.61227566 -0.30573541 0.062529668 1643273
0.61143827 -0.30536273 0.063652329 1643783
0.61154866 -0.30546334 0.064871795 1709320
0.61165905 -0.30556396 0.066091247 1904905
0.61366636 -0.30661234 0.067519426 2167566
0.6137771 -0.30671325 0.068742648 1972242
0.61388785 -0.30681416 0.069965899 1840908
0.61399859 -0.3069151 0.07118912 1840646
0.61410934 -0.30701602 0.072412372 1840143
0.61516941 -0.30759159 0.073749416 1839639
0.61338133 -0.306743 0.074743167 1904658
0.61349189 -0.30684376 0.07596451 1773837
0.6174019 -0.3088451 0.077663779 1708819
0.61751312 -0.30894649 0.078892693 1709337
0.61287344 -0.30667058 0.079505302 1709337
0.61298382 -0.30677116 0.080724753 1645082
0.6121437 -0.30639601 0.081817165 1645082
0.61225396 -0.30649647 0.083034739 1776155
0.61236417 -0.3065969 0.084252298 1971986
0.61342543 -0.30717358 0.085602589 2036746
0.61258465 -0.3067978 0.086687446 2102548
0.61269486 -0.30689824 0.087905005 2168862
0.61280507 -0.3069987 0.089122593 2299161
0.61386704 -0.307576 0.090480424 1970709
0.61397743 -0.30767658 0.091699891 1708316
0.61408782 -0.3077772 0.092919342 2035748
0.61419821 -0.30787781 0.094138809 2364957
0.61526102 -0.30845588 0.095506102 2037527
0.61441904 -0.308079 0.096577711 1710103
0.61452943 -0.30817962 0.097797193 2234903
0.61463982 -0.3082802 0.099016629 2822936
0.61475021 -0.30838081 0.1002361 2692121
0.61200076 -0.30704662 0.10098366 2561820
0.61115724 -0.30666834 0.10203828 2561312
0.61031336 -0.30628973 0.10308909 2562327
0.61042285 -0.30638957 0.10429909 2496270
0.6105324 -0.30648938 0.10550909 2496530
0.61064196 -0.30658922 0.1067191 2300950
0.60979724 -0.30620983 0.10776047 2169877
0.60990661 -0.30630949 0.10896859 2366485
0.61001599 -0.30640915 0.1101767 2563357
0.61012536 -0.30650884 0.11138481 2694949
0.61023474 -0.3066085 0.11259292 2891556
0.60747862 -0.30526823 0.11326677 3023651
0.60758746 -0.30536741 0.1144692 3220261
0.60769629 -0.30546662 0.11567163 3286056
0.60780519 -0.3055658 0.11687408 3419174
0.60695821 -0.30518439 0.11789087 3418660
0.60802287 -0.3057642 0.11927898 3485737
0.61004412 -0.30682522 0.12086029 3420719
0.61015332 -0.30692473 0.12206651 3420468
0.61026251 -0.30702424 0.12327273 3813690
0.61037171 -0.30712375 0.12447898 4207924
0.6104809 -0.30722326 0.12568519 4207661
0.6105901 -0.30732277 0.1268914 4207407
0.61165655 -0.30790415 0.12829842 4207409
0.61080849 -0.30752179 0.12930386 4273200
0.61091769 -0.3076213 0.13051008 4470318
0.61102688 -0.30772081 0.1317163 4668204
0.60826248 -0.30637291 0.1322975 4536363
0.60837114 -0.30647197 0.13349806 4404511
0.60752153 -0.30608821 0.1344865 2892052
0.60475487 -0.30473825 0.1350431 1387035
0.60486287 -0.30483669 0.13623609 2568995
0.60497087 -0.3049351 0.13742909 3816756
0.60316104 -0.30406669 0.1381827 4604997
0.60326868 -0.3041648 0.1393719 5391427
0.60337633 -0.30426288 0.14056112 5260354
0.60540289 -0.30532879 0.14220105 5193534
0.60551089 -0.30542719 0.14339404 5259322
0.60561889 -0.3055256 0.14458703 5390909
0.6057269 -0.30562404 0.14578003 5456960
0.6058349 -0.30572245 0.14697301 5523521
0.6069032 -0.30630553 0.14840081 5393475
0.60605091 -0.30591929 0.14935899 5326906
0.60615891 -0.3060177 0.15055197 5326386
0.60434526 -0.30514586 0.151264 5325369
0.60349196 -0.30475867 0.15221083 4997952
0.60456061 -0.30534208 0.15364242 4669505
0.60659093 -0.30641139 0.15532394 4864067
0.60669893 -0.30650979 0.15651692 5128001
0.60488361 -0.30563638 0.15721004 5258302
0.60499126 -0.30573449 0.15839924 5390138
0.6050989 -0.30583259 0.15958846 5193527
0.60520655 -0.3059307 0.16077767 5062456
0.60435188 -0.30554229 0.16170935 4866105
0.60349685 -0.30515358 0.16263731 4669238
0.60264152 -0.30476451 0.16356143 4865844
0.60274869 -0.30486217 0.16474499 5062970
0.6028558 -0.3049598 0.16592853 5194815
0.60296297 -0.30505744 0.16711205 5391676
0.60307008 -0.30515507 0.16829559 5523002
0.60317725 -0.30525273 0.16947913 5718328
0.60328442 -0.30535036 0.17066267 5323831
0.60435539 -0.30593592 0.17212072 4996924
0.60446274 -0.30603373 0.17330617 5129025
0.60360587 -0.30564326 0.17421329 5259840
0.60274851 -0.30525246 0.17511661 5325375
0.6028555 -0.30534995 0.17629828 5391422
0.60296249 -0.30544743 0.17747994 5392188
0.6021046 -0.30505607 0.17837572 5392187
0.6012463 -0.30466437 0.1792677 5195577
0.60135293 -0.30476153 0.18044558 5062969
0.60145956 -0.30485871 0.18162346 5062457
0.6006006 -0.30446637 0.18250789 5061434
0.60070711 -0.3045634 0.18368386 4929595
0.59694982 -0.30270118 0.18367104 4798777
0.60285223 -0.30573735 0.186634 4864567
0.60295904 -0.30583468 0.18781376 4929846
0.60306585 -0.30593199 0.18899351 4864053
0.6031726 -0.30602932 0.19017327 4799289
0.60231262 -0.30563608 0.19104639 4996158
0.60338622 -0.30622399 0.19253281 5258037
0.60349303 -0.30632129 0.19371253 4864557
0.60263252 -0.30592757 0.19457996 4470830
0.60370666 -0.30651596 0.19607204 4471855
0.60381347 -0.3066133 0.1972518 4471094
0.60392028 -0.3067106 0.19843158 4536894
0.60305905 -0.30631629 0.19929141 4667195
0.60219753 -0.30592161 0.20014749 4667193
0.60036731 -0.30503464 0.20067611 4667704
0.60047346 -0.30513135 0.20184833 4602422
0.60057956 -0.30522802 0.20302051 4536631
0.60068566 -0.30532473 0.2041927 4405304
0.60079181 -0.30542144 0.20536491 4273718
0.60089791 -0.30551815 0.2065371 4273973
0.60003471 -0.30512193 0.20737432 4273968
0.60111016 -0.30571157 0.20888147 4339755
0.60121626 -0.30580825 0.21005365 4470060
0.60326219 -0.30689177 0.21190728 4470317
0.60336864 -0.30698878 0.21308322 4470059
0.60347509 -0.30708578 0.21425922 4338474
0.60358155 -0.30718279 0.21543519 4207143
0.60174686 -0.30629176 0.21591467 4140581
0.60185301 -0.30638847 0.21708685 4076328
0.60001737 -0.30549651 0.21755494 4141867
0.59915209 -0.30509844 0.21836948 4207663
0.59925765 -0.30519468 0.21953598 4009524
0.59936327 -0.30529091 0.22070253 3879733
0.59849727 -0.30489221 0.22150946 3945014
0.59957451 -0.30548337 0.22303557 4075573
0.59968007 -0.3055796 0.22420207 3878709
0.6056183 -0.30864838 0.22756016 3682607
0.60183579 -0.30676323 0.22726943 3484713
0.60680395 -0.30933845 0.23028496 3352347
0.60691077 -0.30943576 0.23146471 2695693
0.60312641 -0.30754891 0.23115316 2041379
0.60031372 -0.30615702 0.2312012 2959929
0.60041934 -0.30625325 0.23236772 3947331
0.59955162 -0.30585298 0.23315573 4740430
0.5986836 -0.30545238 0.23393996 5583679
0.5997625 -0.30604514 0.23548499 4729904
0.59986794 -0.30614123 0.23664963 3943986
0.59997338 -0.30623731 0.23781425 3878452
0.60007882 -0.30633339 0.23897886 3813173
0.65159529 -0.3048346 -0.51946682 16711422
0.65172279 -0.3049508 -0.5180583 16711422
0.65360022 -0.30588597 -0.51803678 16711422
0.65810376 -0.30805069 -0.52008247 16711422
0.65648186 -0.3073484 -0.51728129 16711422
0.6583612 -0.30828527 -0.51723897 16711422
0.65848994 -0.30840257 -0.51581722 16711422
0.65686703 -0.30769932 -0.51302737 16711422
0.65874732 -0.30863714 -0.51297367 16711422
0.65712374 -0.3079333 -0.51019144 16711422
0.65900475 -0.30887175 -0.51013017 16711422
0.65738046 -0.30816725 -0.50735545 16711422
0.65750885 -0.30828422 -0.50593746 16711422
0.65500665 -0.30716759 -0.50250143 16711422
0.65601152 -0.30769545 -0.50175995 16711422
0.649122 -0.30452001 -0.4949944 16711422
0.64924866 -0.30463544 -0.49359536 16711422
0.64937532 -0.30475086 -0.49219629 16711422
0.64950198 -0.30486628 -0.49079725 16711422
0.64988917 -0.30560693 -0.4761622 16711422
0.65001565 -0.30572221 -0.474765 16711422
0.65014213 -0.30583745 -0.47336784 16711422
0.65026861 -0.30595273 -0.47197065 16711422
0.64863497 -0.30523968 -0.4693 16711422
0.64876109 -0.30535462 -0.46790659 16711422
0.65064812 -0.30629852 -0.46777913 16711422
0.6516552 -0.30682841 -0.46701309 16645886
0.65090108 -0.30652905 -0.46498477 16580350
0.65102756 -0.30664432 -0.46358758 16383742
0.65115404 -0.30675957 -0.46219045 16187134
0.65128052 -0.30687484 -0.46079326 16383742
0.64523673 -0.30408224 -0.45504457 16580350
0.64536202 -0.30419639 -0.45366064 16645886
0.64548731 -0.30431059 -0.45227668 16711422
0.64032066 -0.30192944 -0.44719687 16711422
0.64044493 -0.30204266 -0.44582427 16711422
0.64321619 -0.30340451 -0.44628826 16711422
0.6424585 -0.30310187 -0.4442997 16711422
0.64258313 -0.30321541 -0.44292328 16711422
0.64359051 -0.30374563 -0.44215345 16711422
0.64283234 -0.30344251 -0.44017056 16711422
0.64384007 -0.30397302 -0.43939689 16711422
0.64396489 -0.30408671 -0.43801865 16711422
0.64320612 -0.30378315 -0.43604138 16711422
0.64333075 -0.3038967 -0.43466502 16711422
0.6461069 -0.30526301 -0.43507418 16711422
0.64711612 -0.30579481 -0.4342854 16711422
0.64724141 -0.30590898 -0.43290144 16711422
0.6473667 -0.30602315 -0.43151751 16711422
0.64749199 -0.30613732 -0.43013358 16711422
0.6520409 -0.30834335 -0.43167827 16711422
0.64136517 -0.3044326 -0.39422661 16711422
0.64148879 -0.30454519 -0.39286157 16711422
0.642501 -0.30507979 -0.39203876 16711422
0.64173591 -0.30477044 -0.3901315 16711422
0.64274848 -0.3053053 -0.38930491 16711421
0.64287221 -0.30541807 -0.38793799 16645629
0.64299601 -0.30553085 -0.38657105 16579836
0.64489877 -0.30648911 -0.38626969 16579835
0.64502281 -0.30660218 -0.38489899 16580092
0.64514691 -0.30671528 -0.38352826 16580094
0.645271 -0.30682835 -0.38215759 16645884
0.6453951 -0.30694142 -0.38078687 16579322
0.6455192 -0.30705452 -0.37941614 16577781
0.64564329 -0.30716759 -0.37804544 16379633
0.64398599 -0.30643299 -0.37563562 16181745
0.64321887 -0.30612177 -0.37375104 16182258
0.64334244 -0.30623439 -0.37238604 16183025
0.64168352 -0.30549839 -0.36999321 16182256
0.64091539 -0.30518624 -0.36811998 16181746
0.63925529 -0.30444914 -0.36574039 15790836
0.63937801 -0.30456096 -0.36438477 15388366
0.63682503 -0.30339801 -0.36151031 13349288
0.63694721 -0.30350938 -0.36016038 11310470
0.6468842 -0.30829838 -0.36433837 13146725
0.6470083 -0.30841148 -0.36296764 14988461
0.6471324 -0.30852455 -0.36159694 15525877
0.64725649 -0.30863762 -0.36022621 16050927
0.64827353 -0.30917656 -0.35935047 15654378
0.64750469 -0.30886379 -0.35748479 15260647
0.64584225 -0.30812451 -0.35513172 15129573
0.64507252 -0.30781096 -0.35327548 15064034
0.64251524 -0.30664411 -0.35044822 14931680
0.64085066 -0.30590296 -0.3481178 14865886
0.64097339 -0.30601481 -0.34676218 14865884
0.64020199 -0.30569968 -0.3449249 14931933
0.63853592 -0.30495712 -0.34261155 14931679
0.63865817 -0.30506849 -0.3412616 14997215
0.63878036 -0.30517986 -0.33991173 14997472
0.63890254 -0.30529124 -0.3385618 14997981
0.64081472 -0.30625805 -0.33815643 15063258
0.64093733 -0.30636972 -0.33680275 15127258
0.64105988 -0.30648142 -0.33544904 14799323
0.64118242 -0.30659309 -0.33409536 14537176
0.64130497 -0.30670476 -0.33274168 14471638
0.64142752 -0.30681643 -0.331388 14471636
0.64155006 -0.3069281 -0.33003429 14470610
0.63450307 -0.30360916 -0.32500815 14534609
0.63462424 -0.30371961 -0.32366961 14403793
0.63474542 -0.30383003 -0.32233104 14272974
0.6348666 -0.30394045 -0.32099247 14208459
0.63498777 -0.30405089 -0.3196539 14209742
0.63510895 -0.30416131 -0.31831533 14142673
0.63702464 -0.30513129 -0.3178722 14141644
0.63804352 -0.30567193 -0.31697565 14009544
0.63816524 -0.30578282 -0.31563142 13877705
0.63559371 -0.30460304 -0.31296107 13746123
0.63571489 -0.30471346 -0.3116225 13549258
0.63763225 -0.30568498 -0.31116045 13680330
0.63775378 -0.30579573 -0.30981809 13811916
0.64057058 -0.30719903 -0.30977917 13483982
0.64069259 -0.30731022 -0.30843115 13156044
0.63632077 -0.30526561 -0.30492967 12435147
0.63644195 -0.30537602 -0.30359107 11714246
0.63836139 -0.30634943 -0.30310634 12893121
0.63848293 -0.30646017 -0.30176398 14072002
0.6395039 -0.30700269 -0.30084476 14006724
0.63962555 -0.30711359 -0.29950052 13941701
0.63974726 -0.30722448 -0.29815629 13680583
0.64166892 -0.30819991 -0.29764697 13418950
0.63999063 -0.30744627 -0.29546782 13351366
0.64011234 -0.3075572 -0.29412356 13285574
0.64023405 -0.30766809 -0.29277933 13220550
0.63945508 -0.30734611 -0.29102519 13089993
0.63957661 -0.30745682 -0.28968284 13352397
0.63969815 -0.30756757 -0.28834048 13549256
0.63801736 -0.3068116 -0.28618971 13483716
0.63723719 -0.30648854 -0.2844488 13418177
0.63735825 -0.30659881 -0.28311211 13286335
0.63747925 -0.30670908 -0.28177541 13219517
0.63760024 -0.30681935 -0.28043875 13154236
0.63591725 -0.30606139 -0.27831253 13088960
0.63603795 -0.30617133 -0.27697966 13022660
0.63525623 -0.30584684 -0.27525577 12957119
0.63537675 -0.30595666 -0.27392477 12890555
0.6345945 -0.3056317 -0.27220652 12825533
0.63471484 -0.30574134 -0.27087742 12890560
0.63483518 -0.30585098 -0.2695483 12957337
0.62953627 -0.30334932 -0.26592997 11509619
0.62965554 -0.30345803 -0.26461223 10111137
0.62977487 -0.30356672 -0.26329446 10045904
0.62627923 -0.30193269 -0.26047322 9915087
0.63634074 -0.30683509 -0.26327673 11582414
0.63646126 -0.30694491 -0.26194569 13217222
0.63658172 -0.3070547 -0.26061469 12890559
0.63579774 -0.30672818 -0.25891536 12564149
0.63591808 -0.30683783 -0.25758624 12429227
0.63603842 -0.30694747 -0.25625715 12363181
0.63706374 -0.30749393 -0.25529069 12035503
0.63627905 -0.30716679 -0.25359893 11773355
0.63639939 -0.30727643 -0.2522698 11772583
0.63470888 -0.30651161 -0.25022677 11838374
0.63482887 -0.30662093 -0.24890146 11903654
0.6340431 -0.30629271 -0.24722295 11903399
0.63235098 -0.30552644 -0.24519692 11837864
0.63428271 -0.30651107 -0.24457605 11772584
0.63258994 -0.30574417 -0.2425576 11641256
0.63270938 -0.30585304 -0.24123794 11510959
0.63464218 -0.3068386 -0.24060573 11509430
0.63476199 -0.3069478 -0.23928228 11443119
0.63306779 -0.30617964 -0.23727895 11443113
0.63318729 -0.30628851 -0.23595929 11443113
0.63330674 -0.30639738 -0.23463961 11442858
0.63342625 -0.30650625 -0.23331997 11442855
0.63263804 -0.30617586 -0.23166791 11377061
0.63275737 -0.30628458 -0.23035014 11376801
0.63287663 -0.30639327 -0.22903237 11442590
0.62663877 -0.30342379 -0.22542767 11508387
0.62675685 -0.30353141 -0.22412312 11508392
0.62687498 -0.30363905 -0.22281861 11508644
0.62971908 -0.30506727 -0.22247717 11377056
0.62983769 -0.30517536 -0.22116695 11311265
0.62995631 -0.30528346 -0.21985674 11376547
0.62825656 -0.30451021 -0.21791582 11441825
0.63019353 -0.30549964 -0.21723633 11245216
0.63122165 -0.30604872 -0.21623769 11048606
0.63043076 -0.30571583 -0.2146159 10917533
0.63236916 -0.30670652 -0.21392129 10851997
0.63248813 -0.30681494 -0.21260729 11048862
0.6326071 -0.30692333 -0.21129331 11247774
0.63454682 -0.30791527 -0.21058357 9935262
0.63466614 -0.30802396 -0.2092658 8623006
0.63478541 -0.30813268 -0.20794803 8884639
0.63490474 -0.3082414 -0.20663026 9212062
0.63137966 -0.30658054 -0.20413421 10195101
0.63149828 -0.30668861 -0.20282401 11243673
0.63161689 -0.3067967 -0.2015138 10849942
0.63355875 -0.30779055 -0.20078139 10521740
0.63276589 -0.30745593 -0.19918039 10325378
0.63288468 -0.30756417 -0.19786829 10129033
0.63209134 -0.30722907 -0.19627297 10194065
0.63312227 -0.30778065 -0.19524409 10324625
0.63324106 -0.3078889 -0.19393198 10455442
0.63244724 -0.30755332 -0.19234234 10651795
0.62891465 -0.30588558 -0.18992949 10454676
0.62720668 -0.30510482 -0.18807931 10258072
0.62915051 -0.30610052 -0.1873242 10192541
0.62926847 -0.30620798 -0.18602155 10126993
0.62755942 -0.3054263 -0.18418272 10061190
0.62767702 -0.30553344 -0.18288386 9995403
0.62779462 -0.30564061 -0.18158498 9864592
0.62791222 -0.30574775 -0.18028612 9733516
0.62802982 -0.30585492 -0.17898726 9798792
0.62814736 -0.30596206 -0.17768839 9798541
0.62735045 -0.30562371 -0.17613278 9864083
0.62746787 -0.30573073 -0.1748358 9929630
0.63032979 -0.30717516 -0.17429774 10127017
0.6286177 -0.30639067 -0.17249294 10390155
0.6287353 -0.30649781 -0.17119406 8943213
0.6306836 -0.30749756 -0.1703898 7552389
0.6289705 -0.30671212 -0.16859633 7040925
0.6281724 -0.3063727 -0.16705395 6491804
0.62828982 -0.30647969 -0.16575699 8425371
0.62565905 -0.30524591 -0.16374077 10396308
0.62577599 -0.30535245 -0.16244948 9929613
0.62497652 -0.30501175 -0.16092221 9535372
0.6269263 -0.3060129 -0.16010095 9403787
0.62704337 -0.30611959 -0.15880775 9273742
0.62899429 -0.30712169 -0.15797514 9404561
0.62911171 -0.30722868 -0.15667816 9535620
0.63289809 -0.30912772 -0.15628719 9600375
0.62934655 -0.30744267 -0.15408421 9665663
0.62946397 -0.30754969 -0.15278724 9731976
0.62958139 -0.30765668 -0.15149026 9797515
0.62786293 -0.30686638 -0.14975539 9863566
0.62797999 -0.30697307 -0.14846219 9995156
0.62626058 -0.30618188 -0.14673869 9994906
0.63005102 -0.30808467 -0.14630237 9995922
0.63016844 -0.30819166 -0.14500539 10126730
0.63028586 -0.30829865 -0.14370841 10259082
0.62856537 -0.3075065 -0.14199623 10324362
0.62776333 -0.30716345 -0.14049733 10389901
0.62696093 -0.30682009 -0.13900222 10521232
0.6270777 -0.30692649 -0.13771281 10718863
0.6271944 -0.30703285 -0.13642339 10915982
0.62731111 -0.30713922 -0.13513398 11114634
0.62558788 -0.30634457 -0.13345206 11377542
0.62570429 -0.30645064 -0.13216643 11639704
0.62582064 -0.30655667 -0.13088079 11903402
0.62501657 -0.3062118 -0.12940459 12165806
0.6251328 -0.30631769 -0.12812084 13020850
0.62524897 -0.3064236 -0.1268371 13942985
0.6253652 -0.30652949 -0.12555337 14931937
0.62548143 -0.30663541 -0.12426963 15985636
0.62559766 -0.30674133 -0.12298588 15986407
0.62663537 -0.30729911 -0.12188138 16049890
0.62583011 -0.30695313 -0.12041841 15983326
0.62594628 -0.30705902 -0.11913467 15910628
0.62237436 -0.30535543 -0.11715666 15582186
0.62156773 -0.30500817 -0.11570881 15319279
0.62168306 -0.30511332 -0.11443453 13417716
0.61995333 -0.30431274 -0.11282445 11581663
0.62006837 -0.30441755 -0.11155395 11449035
0.62018341 -0.30452237 -0.11028345 11316418
0.61845225 -0.30372053 -0.1086885 11120058
0.61856693 -0.30382505 -0.10742177 10923678
0.61775821 -0.30347592 -0.10599661 10787203
0.61787271 -0.30358028 -0.10473177 10652789
0.61798722 -0.30368462 -0.10346694 9929831
0.61625391 -0.30288079 -0.10189657 9206889
0.61544394 -0.30253056 -0.10048463 8221548
0.61463368 -0.30218002 -0.099076487 7170930
0.61474752 -0.30228373 -0.097819217 7302521
0.61486137 -0.30238748 -0.096561946 7499627
0.61497515 -0.30249119 -0.095304675 7302494
0.61323911 -0.30168486 -0.093764558 7105626
0.6133526 -0.30178827 -0.092511065 7170902
0.61346608 -0.30189168 -0.091257572 7170901
0.61080313 -0.3006286 -0.089596823 6907220
0.61091614 -0.30073154 -0.088349007 6709343
0.61102909 -0.30083448 -0.087101191 6513258
0.612068 -0.30139339 -0.085983448 6382949
0.61218119 -0.30149648 -0.084733739 6185569
0.61322063 -0.30205587 -0.083610334 6053726
0.61333394 -0.30215913 -0.08235874 5856604
0.61344725 -0.3022624 -0.08110714 5659469
0.61448741 -0.30282235 -0.079976164 5397055
0.61645484 -0.30383956 -0.078960143 5134661
0.61749583 -0.30440035 -0.07781972 4871756
0.61853725 -0.30496147 -0.076675519 4608828
0.61865139 -0.30506548 -0.075414464 4542252
0.61876553 -0.30516952 -0.074153416 4410408
0.61887974 -0.30527356 -0.07289236 4273700
0.61899388 -0.3053776 -0.071631305 4071457
0.6181798 -0.30502361 -0.070264749 3612447
0.61736542 -0.30466935 -0.068901978 3153443
0.61562222 -0.30385646 -0.067441262 3284263
0.61573565 -0.30395988 -0.066187777 3349538
0.61770689 -0.30498052 -0.065130167 3153181
0.61782074 -0.30508423 -0.063872896 3022623
0.61793453 -0.30518797 -0.062615618 2891554
0.61602783 -0.30500183 -0.042243645 1970976
