# .PCD v0.7 - Point Cloud Data file format
VERSION 0.7
FIELDS x y z rgba
SIZE 4 4 4 4
TYPE F F F U
COUNT 1 1 1 1
WIDTH 689
HEIGHT 1
VIEWPOINT 0 0 0 1 0 0 0
POINTS 689
DATA ascii
0.77899784 -0.31620529 0.29544988 2366235
0.77912569 -0.31632182 0.29686221 2170128
0.73552644 -0.31621024 0.21410099 3484712
0.73565054 -0.31632331 0.21547168 3484444
0.46070823 -0.31640834 0.029107574 5984593
0.46080166 -0.31649351 0.030139852 5984340
0.56378281 -0.29608518 -0.13512008 9603984
0.61580801 -0.26961005 -0.073686659 6510664
0.61698848 -0.27023092 -0.071374044 6377802
0.61709833 -0.27033105 -0.070160255 6246728
0.61720824 -0.27043119 -0.068946473 6115400
0.61534113 -0.27203864 -0.071374044 6312520
0.61736834 -0.27298656 -0.070378825 6246984
0.61747861 -0.27308702 -0.069161259 6247237
0.61797762 -0.29956684 -0.06859114 5720903
0.61497617 -0.30591953 -0.076445602 3481892
0.61204904 -0.30572608 -0.078722678 4271401
0.61216253 -0.3058295 -0.077469185 4140058
0.61412299 -0.30685577 -0.076445602 4072993
0.61423683 -0.30695948 -0.075188331 3809320
0.6163125 -0.30809075 -0.07289236 3680539
0.61642671 -0.30819479 -0.071631312 3876646
0.61119848 -0.30665949 -0.078722678 5912360
0.61131197 -0.3067629 -0.077469185 5650714
0.61326981 -0.30779201 -0.076445602 5389086
0.61338365 -0.30789572 -0.075188331 5125666
0.61023438 -0.30748951 -0.079976164 7887690
0.61034787 -0.30759293 -0.078722678 7625028
0.61887676 -0.29608002 -0.065888278 5785923
0.61407101 -0.25814056 -0.08966323 7299681
0.6121884 -0.26961535 -0.095500797 7957101
0.61244166 -0.29611468 -0.088081285 7627342
0.61255425 -0.29621729 -0.086837247 7430215
0.61300451 -0.29753214 -0.093340278 8022369
0.61125958 -0.2967332 -0.091813393 8087134
0.61137217 -0.29683581 -0.090569355 8152411
0.61148483 -0.29693845 -0.089325324 7824729
0.61159742 -0.29704109 -0.088081285 7561561
0.61204481 -0.29835841 -0.094588093 8088163
0.61215776 -0.29846135 -0.093340278 7891551
0.6104154 -0.29765958 -0.091813393 7891035
0.61052799 -0.29776219 -0.090569355 7890523
0.61064065 -0.29786482 -0.089325324 7628124
0.61075324 -0.29796746 -0.088081285 7430501
0.61223722 -0.29984418 -0.093481697 7826780
0.61142397 -0.29949349 -0.092092462 7761240
0.60968381 -0.29868859 -0.090569355 7694424
0.61176288 -0.29980233 -0.088349007 7299682
0.61346608 -0.30189168 -0.091257572 7170901
0.61080313 -0.3006286 -0.089596823 6907220
0.61135155 -0.30205861 -0.094874732 6512215
0.61238855 -0.30261829 -0.093764558 6445393
0.61250198 -0.30272171 -0.092511065 6575435
0.61261547 -0.30282509 -0.091257572 6705998
0.61153793 -0.30355173 -0.093764558 7030600
0.61361033 -0.30467486 -0.091532856 6768199
0.6126433 -0.30550736 -0.092790134 7293771
0.61259615 -0.30680054 -0.094188824 8219734
0.61271012 -0.30690444 -0.092929661 7564118
0.61174166 -0.30773821 -0.094188824 8744798
0.610937 -0.30737987 -0.092790134 7893338
0.61169034 -0.3090353 -0.095591307 8879216
0.61180454 -0.30913934 -0.094330259 8745831
0.61008382 -0.30831611 -0.092790134 7428703
0.61083466 -0.30997437 -0.095591307 8943986
0.6109488 -0.31007841 -0.094330259 8746603
0.61571473 -0.29660019 -0.082109913 7101274
0.61582768 -0.29670316 -0.080862097 7035479
0.61594063 -0.2968061 -0.079614282 6838868
0.61698699 -0.2973589 -0.078485198 6707538
0.6126669 -0.29631993 -0.085593209 7298638
0.6127795 -0.29642257 -0.084349178 7233110
0.61289215 -0.29652518 -0.083105139 7167577
0.61486793 -0.29752943 -0.082109913 7035740
0.61498094 -0.29763237 -0.080862097 6969944
0.61509389 -0.2977353 -0.079614282 6773333
0.61707115 -0.2987408 -0.078603938 6642258
0.61171007 -0.2971437 -0.086837247 7430234
0.61182266 -0.29724634 -0.085593209 7299162
0.61402118 -0.29845861 -0.082109913 7035739
0.61413419 -0.29856157 -0.080862097 6904408
0.61424714 -0.29866451 -0.079614282 6773333
0.61317444 -0.29938784 -0.082109913 6904410
0.61432976 -0.30004764 -0.079734907 6773333
0.61187583 -0.29990527 -0.087101191 7169132
0.61198878 -0.30000821 -0.085853368 7037541
0.61210179 -0.30011114 -0.084605552 6840671
0.61325544 -0.30077207 -0.082234323 6774363
0.61336863 -0.30087516 -0.080984615 6904658
0.61091614 -0.30073154 -0.088349007 6709343
0.61102909 -0.30083448 -0.087101191 6513258
0.612068 -0.30139339 -0.085983448 6382949
0.61218119 -0.30149648 -0.084733739 6185569
0.61322063 -0.30205587 -0.083610334 6053726
0.61333394 -0.30215913 -0.08235874 5856604
0.61344725 -0.3022624 -0.08110714 5659469
0.61448741 -0.30282235 -0.079976164 5397055
0.61272895 -0.30292851 -0.090004086 6377809
0.61284244 -0.30303192 -0.088750593 6114899
0.61295593 -0.30313534 -0.087497108 5917782
0.61214471 -0.30278137 -0.086113535 5720143
0.61225802 -0.30288464 -0.084861934 5588040
0.61329639 -0.30344558 -0.083736636 5455675
0.61340982 -0.30354896 -0.082483143 4930350
0.6135233 -0.30365238 -0.081229657 4469301
0.61372411 -0.30477858 -0.090275586 6505806
0.61383796 -0.30488229 -0.089018315 6177864
0.61395174 -0.30498603 -0.087761045 5782339
0.61429322 -0.3052972 -0.083989233 5124632
0.61275715 -0.3056111 -0.091532856 6900302
0.61287093 -0.30571482 -0.090275586 6572370
0.61298478 -0.30581853 -0.089018315 6310473
0.61309862 -0.30592227 -0.087761045 5713216
0.6134401 -0.30623344 -0.083989233 4863015
0.61282414 -0.3070083 -0.091670498 6974038
0.61258692 -0.30716968 -0.083989233 6702646
0.61105078 -0.30748358 -0.091532856 7103823
0.61019766 -0.30841982 -0.091532856 6110280
0.6180613 -0.29663447 -0.075985782 6445133
0.61910969 -0.29718652 -0.074849144 6313802
0.619223 -0.29728976 -0.073597543 6247755
0.61933631 -0.29739302 -0.072345942 6181708
0.61944962 -0.29749629 -0.071094342 6115912
0.61956292 -0.29759952 -0.069842741 5984069
0.61874014 -0.29725307 -0.068487525 5852237
0.61710012 -0.29746202 -0.07723549 6576464
0.61908084 -0.29846546 -0.076215692 6510413
0.61919433 -0.29856887 -0.074962206 6379338
0.61930776 -0.29867226 -0.073708713 6247499
0.61942124 -0.29877567 -0.072455227 6181708
0.61964822 -0.2989825 -0.069948241 5984584
0.61976171 -0.29908592 -0.068694755 5851978
0.61718446 -0.29884407 -0.077352338 6510928
0.61823022 -0.2993989 -0.076215692 6444877
0.61834371 -0.29950228 -0.074962206 6248266
0.6184572 -0.2996057 -0.073708713 6116427
0.61857069 -0.29970911 -0.072455227 6050637
0.61868417 -0.29981253 -0.071201734 5918796
0.6187976 -0.29991594 -0.069948241 5787724
0.61622185 -0.29967284 -0.078603938 6642258
0.61726612 -0.30022889 -0.077469185 6510927
0.61749309 -0.30043572 -0.074962206 6182731
0.61946964 -0.30144572 -0.073931061 6051146
0.61772007 -0.30064255 -0.072455227 5919560
0.61969727 -0.30165318 -0.07141652 5787979
0.61981112 -0.30175689 -0.070159249 5656655
0.6181612 -0.30196708 -0.078960143 6642513
0.61827499 -0.3020708 -0.077702872 6511182
0.61850268 -0.30227825 -0.075188331 6182733
0.61954671 -0.30283669 -0.074042231 5986120
0.61873031 -0.3024857 -0.07267379 5657156
0.6197747 -0.30304444 -0.071523912 5329483
0.61545146 -0.30199236 -0.078722678 6642763
0.61835027 -0.30346268 -0.07781972 6511693
0.61846429 -0.30356658 -0.076560557 6378308
0.61857826 -0.30367044 -0.075301394 6182716
0.61962128 -0.30423048 -0.074153416 5984824
0.61880624 -0.30387819 -0.072783075 5459508
0.61984962 -0.30443853 -0.071631305 4931382
0.61645484 -0.30383956 -0.078960143 5134661
0.61749583 -0.30440035 -0.07781972 4871756
0.61853725 -0.30496147 -0.076675519 4608828
0.61865139 -0.30506548 -0.075414464 4542252
0.61876553 -0.30516952 -0.074153416 4410408
0.61887974 -0.30527356 -0.07289236 4273700
0.61899388 -0.3053776 -0.071631305 4071457
0.61560166 -0.30477583 -0.078960143 3613496
0.6166414 -0.305338 -0.07781972 3218739
0.61675537 -0.30544189 -0.076560557 2890544
0.61686939 -0.30554575 -0.075301394 2890285
0.61790979 -0.30610859 -0.074153416 2890272
0.61802399 -0.3062126 -0.07289236 3086867
0.61813813 -0.30631664 -0.071631305 3283995
0.61474854 -0.30571207 -0.078960143 3938858
0.61486232 -0.30581579 -0.077702872 3677466
0.6160149 -0.30648339 -0.075301394 3350319
0.6170541 -0.30704764 -0.074153416 3218713
0.61716825 -0.30715168 -0.07289236 3350787
0.61728239 -0.30725572 -0.071631305 3548694
0.61619836 -0.30798671 -0.074153416 3548194
0.62353927 -0.28129381 -0.061485711 5456940
0.62281591 -0.28481969 -0.062912397 5588536
0.62197554 -0.28574184 -0.062912397 5588029
0.62322348 -0.29153696 -0.064640462 5655108
0.6197235 -0.29515085 -0.065888278 5720635
0.60746592 -0.3059305 -0.12170737 14271169
0.60757977 -0.30603421 -0.1204501 14601161
0.60638511 -0.30665931 -0.12422191 12889268
0.60467488 -0.30584043 -0.12259483 13284285
0.60478836 -0.30594385 -0.12134133 13746369
0.60490185 -0.30604726 -0.12008785 14074821
0.60371083 -0.30667046 -0.12384832 11840445
0.60382432 -0.30677387 -0.12259483 12891585
0.60302687 -0.30641443 -0.12115832 13942721
0.60587341 -0.30790672 -0.1204501 14074818
0.60598725 -0.30801043 -0.11919283 14205891
0.60513407 -0.30894667 -0.11919283 14074818
0.60428089 -0.30988294 -0.11919283 14008001
0.61421567 -0.29653686 -0.099730246 8679287
0.6142956 -0.29791752 -0.099881127 8745074
0.61339939 -0.29619116 -0.098331548 8286064
0.61351234 -0.29629412 -0.097083732 8154217
0.61362535 -0.29639706 -0.095835917 8088168
0.61440891 -0.29802075 -0.098629527 8547950
0.61266559 -0.2972233 -0.097083732 8351082
0.6127786 -0.29732627 -0.095835917 8219239
0.61289155 -0.2974292 -0.094588093 8088165
0.61437291 -0.29930097 -0.100032 8876653
0.6135596 -0.29895279 -0.098629527 8482156
0.61367291 -0.29905605 -0.097377934 8351084
0.61285901 -0.29870737 -0.095981114 8285031
0.61363578 -0.30033779 -0.098778516 8416367
0.61374927 -0.30044121 -0.097525023 8416882
0.61386275 -0.30054462 -0.096271537 8416873
0.61397624 -0.30064803 -0.095018044 8089184
0.61463368 -0.30218002 -0.099076487 7170930
0.61474752 -0.30228373 -0.097819217 7302521
0.61486137 -0.30238748 -0.096561946 7499627
0.61497515 -0.30249119 -0.095304675 7302494
0.61323911 -0.30168486 -0.093764558 7105626
0.6133526 -0.30178827 -0.092511065 7170902
0.61378056 -0.30311626 -0.099076487 5987176
0.61389434 -0.30322 -0.097819217 6248809
0.61400819 -0.30332372 -0.096561946 6576992
0.61292738 -0.30405253 -0.099076487 7495262
0.61304116 -0.30415624 -0.097819217 7364441
0.61407703 -0.30471748 -0.09670715 7294805
0.61326885 -0.3043637 -0.095304675 7167825
0.61349648 -0.30457112 -0.092790127 6899264
0.61299461 -0.30544737 -0.099225469 9006949
0.61230183 -0.3051962 -0.096561946 8086359
0.61241567 -0.30529994 -0.095304675 7889235
0.61345059 -0.3058629 -0.094188824 7689807
0.61478305 -0.30766082 -0.10093727 9534842
0.61214018 -0.30638504 -0.099225469 9207148
0.61501205 -0.30786949 -0.098407604 8813663
0.61328769 -0.30705315 -0.096852362 8485978
0.61248213 -0.30669665 -0.095447987 8352854
0.61369574 -0.30839399 -0.10346694 10322565
0.6139248 -0.30860269 -0.10093727 9666429
0.6140393 -0.30870703 -0.099672437 9403761
0.6141538 -0.30881137 -0.098407604 9141350
0.6142683 -0.3089157 -0.097142771 8879204
0.61254609 -0.30809626 -0.095591307 8814691
0.61283743 -0.30933589 -0.10346694 10323846
0.61386818 -0.30990276 -0.10235487 9996419
0.61306649 -0.30954456 -0.10093727 9732224
0.61318099 -0.3096489 -0.099672437 9469303
0.6132955 -0.30975327 -0.098407604 9207150
0.61341 -0.30985761 -0.097142771 9010543
0.61243719 -0.31069514 -0.098407604 9338228
0.61255169 -0.31079948 -0.097142771 9141107
0.62140357 -0.2997807 -0.07141652 6115658
0.61924201 -0.30123827 -0.076445602 6379597
0.61931872 -0.3026289 -0.076560557 6378573
0.62857866 -0.29692328 -0.060281832 5193266
0.62549919 -0.29665804 -0.063872889 5457210
0.62655377 -0.29720801 -0.062709779 5391160
0.62760878 -0.29775831 -0.061542887 5324854
0.62772292 -0.29786235 -0.060281832 5193524
0.62464601 -0.29759428 -0.063872896 5457463
0.62569934 -0.29814565 -0.062709779 5325366
0.62675303 -0.29869738 -0.061542887 5194038
0.62686718 -0.29880142 -0.060281832 5128247
0.62367904 -0.29842681 -0.065130167 5654332
0.62379289 -0.29853052 -0.063872896 5522491
0.62469906 -0.3002634 -0.065326042 5588800
0.62571388 -0.30210561 -0.065521926 5523263
0.62395751 -0.30130649 -0.064064994 5392185
0.62485564 -0.30304748 -0.065521926 5261375
0.6178897 -0.26159588 -0.10519596 10912881
0.61799937 -0.26169586 -0.10398407 10058347
0.61706734 -0.26249832 -0.10519596 11109491
0.61717701 -0.26259831 -0.10398407 10124653
0.61698651 -0.26361144 -0.10778764 14002066
0.61709642 -0.26371157 -0.10657386 12622717
0.61624491 -0.26340079 -0.10519596 11175030
0.6161629 -0.26451528 -0.10778764 14199453
0.61627275 -0.26461542 -0.10657386 12755075
0.61638266 -0.26471555 -0.10536007 11306618
0.61544907 -0.26551929 -0.10657386 12754314
0.61555898 -0.26561943 -0.10536007 11372926
0.60992032 -0.30570349 -0.12459552 13086898
0.61186367 -0.30672446 -0.12370428 13944000
0.61014867 -0.30591154 -0.12207341 14796231
0.61026281 -0.30601558 -0.12081236 15129551
0.60815138 -0.30618277 -0.12440871 12955308
0.6082654 -0.30628666 -0.12314955 13614010
0.61658424 -0.29619044 -0.10379247 11046269
0.61855805 -0.29718763 -0.1028483 10125166
0.61681122 -0.29639727 -0.10128549 9205617
0.61736345 -0.2978127 -0.10662012 12689044
0.61747724 -0.29791644 -0.10536284 11899796
0.61759108 -0.29802015 -0.10410558 11179389
0.61770487 -0.29812387 -0.1028483 10124903
0.61596066 -0.29733068 -0.10128549 9076335
0.61755133 -0.29930207 -0.10552128 12162706
0.61685175 -0.29906011 -0.1028483 10124902
0.61696553 -0.29916385 -0.10159103 8944236
0.61762291 -0.30069056 -0.10567973 12491921
0.61773705 -0.3007946 -0.10441868 11573883
0.61692488 -0.30044749 -0.10300296 10454118
0.61611241 -0.30010009 -0.10159103 9336681
0.61699551 -0.30183768 -0.10315762 10783590
0.61787271 -0.30358028 -0.10473177 10652789
0.61689991 -0.30441782 -0.10599661 8684933
0.61793673 -0.30497733 -0.10488832 9470587
0.6158126 -0.30515099 -0.10852627 9262616
0.61408579 -0.30434278 -0.10694078 9592912
0.6160416 -0.30535966 -0.10599661 9735304
0.61615616 -0.30546403 -0.10473177 9861250
0.61483979 -0.30598852 -0.10979111 11898961
0.61495429 -0.30609286 -0.10852627 11573079
0.61598819 -0.3066549 -0.10742177 11310446
0.61610287 -0.30675939 -0.10615505 10785925
0.61621755 -0.3068639 -0.10488832 10321026
0.61398149 -0.30693039 -0.10979111 12102038
0.61409605 -0.30703473 -0.10852627 11639702
0.61512864 -0.30759817 -0.10742177 11245964
0.61524332 -0.30770269 -0.10615505 10850178
0.62552148 -0.25747582 -0.073571704 9865339
0.62470043 -0.25837687 -0.073571704 7756387
0.62846452 -0.29681924 -0.061542887 5324854
0.63240904 -0.29613855 -0.057932921 4864300
0.63346899 -0.2966857 -0.056752786 4732203
0.63358366 -0.29679018 -0.055486064 4404010
0.63143623 -0.29697606 -0.05919775 5061424
0.63249475 -0.29752448 -0.058019511 4864044
0.63355362 -0.2980732 -0.056837495 4666412
0.63366842 -0.29817787 -0.055568881 4404013
0.63057792 -0.29791796 -0.05919775 5061679
0.63163519 -0.29846776 -0.058019511 4864045
0.63269275 -0.29901788 -0.056837495 4666158
0.63280761 -0.29912254 -0.055568881 4403760
0.62971961 -0.29885983 -0.05919775 5127473
0.63077557 -0.29941103 -0.058019511 4929582
0.63089025 -0.29951555 -0.056752786 4731951
0.63194674 -0.30006725 -0.055568881 4469296
0.62991601 -0.30035433 -0.058019511 4798768
0.63003069 -0.30045885 -0.056752786 4535600
0.61386454 -0.30606878 -0.13168579 11178905
0.61306441 -0.30571714 -0.13022281 11375513
0.61317909 -0.30582166 -0.12895608 11507866
0.61329377 -0.30592614 -0.12768936 11639458
0.61288887 -0.30690882 -0.1329544 11047830
0.61209017 -0.30655593 -0.13148953 11178648
0.61129111 -0.30620274 -0.13002844 11310487
0.61152011 -0.30641142 -0.12749878 11573661
0.61065722 -0.30697671 -0.13782315 10456210
0.61259508 -0.30799788 -0.13696407 10653079
0.61088657 -0.30718571 -0.1352897 10849943
0.61191314 -0.30774885 -0.13422301 10915992
0.61111593 -0.30739471 -0.13275625 11047832
0.6093455 -0.30787781 -0.13255812 11048088
0.61633176 -0.30620772 -0.12425901 14208711
0.61340845 -0.30603066 -0.12642263 12430507
0.61352313 -0.30613515 -0.12515591 13218488
0.6136378 -0.30623966 -0.12388919 14076358
0.61375248 -0.30634415 -0.12262246 14928077
0.61386716 -0.30644867 -0.12135574 15195093
0.61768913 -0.28989533 -0.10706627 13216419
0.61766386 -0.29116207 -0.1084782 14728114
0.61774904 -0.29253462 -0.10864232 14794164
0.61786234 -0.29263788 -0.10739072 13480348
0.61958146 -0.29469281 -0.11039193 15785169
0.61783153 -0.29390994 -0.10880644 14859449
0.61794502 -0.29401335 -0.10755295 13545634
0.61872828 -0.29562905 -0.11039193 15852502
0.63550502 -0.29639313 -0.054300264 4141350
0.63656718 -0.29693967 -0.053110689 3878181
0.63464415 -0.29733783 -0.054300264 4141353
0.63570505 -0.29788578 -0.053110689 3878184
0.6347279 -0.29872707 -0.054381192 4141098
0.63966691 -0.28134528 -0.046131928 3748913
0.63892317 -0.284899 -0.047528364 3023908
0.63903701 -0.28500271 -0.046271093 2825757
0.63807005 -0.28583524 -0.047528364 3023135
0.63818383 -0.28593895 -0.046271093 2691351
0.6373077 -0.28940806 -0.048932362 3154703
0.63836032 -0.29121771 -0.049079083 3219982
0.63738757 -0.29205522 -0.050343916 3549462
0.63750207 -0.29215959 -0.049079083 3351315
0.63748074 -0.29343507 -0.050419167 3549210
0.63759542 -0.29353955 -0.049152441 3351832
0.63852149 -0.29525709 -0.050569676 3614491
0.63863653 -0.29536191 -0.049299169 3351319
0.63875157 -0.29546672 -0.048028663 2760722
0.63754433 -0.29609841 -0.051840182 3745567
0.62334478 -0.25969923 -0.11560807 16711422
0.62251729 -0.2606073 -0.11560807 16711422
0.61827445 -0.30683774 -0.13374697 10982293
0.61838996 -0.306943 -0.1324708 11179670
0.61758924 -0.30659342 -0.13100027 11442333
0.61770457 -0.30669856 -0.12972598 11573924
0.6159867 -0.30589327 -0.12807053 11706023
0.61683077 -0.30726165 -0.14012787 10587794
0.61694634 -0.30736694 -0.13885169 10653843
0.61717737 -0.30757749 -0.13629933 10849939
0.61729294 -0.30768278 -0.13502315 10915986
0.61466444 -0.30642012 -0.13315256 10982293
0.61505222 -0.30775538 -0.13992026 10653071
0.61516762 -0.30786049 -0.13864599 10653074
0.61619586 -0.30842254 -0.13757551 10784405
0.61539835 -0.30807075 -0.13609742 10915477
0.61551368 -0.30817589 -0.13482313 10981525
0.61236507 -0.30778825 -0.13950509 10587277
0.62280697 -0.29732931 -0.11755557 16711422
0.62292165 -0.29743382 -0.11628884 16711422
0.62210643 -0.29709426 -0.11485044 16711422
0.62036085 -0.29631013 -0.11324604 16711422
0.62299055 -0.29882243 -0.1164624 16711422
0.62217677 -0.29848158 -0.11502212 16711422
0.62136263 -0.29814047 -0.11358561 16711422
0.62305689 -0.3002139 -0.11663598 16711422
0.62224454 -0.2998718 -0.11519378 16711422
0.62219471 -0.30116001 -0.11663598 16711422
0.62138367 -0.30081648 -0.11519378 16711422
0.62318176 -0.30300522 -0.1169831 16645886
0.62231702 -0.30395415 -0.1169831 16580340
0.61960256 -0.30630854 -0.12864226 11772587
0.61971813 -0.3064138 -0.12736608 12626601
0.61983365 -0.30651909 -0.12608992 13482937
0.61994916 -0.30662438 -0.12481374 14471369
0.62098336 -0.3071841 -0.12372058 15391959
0.61610168 -0.30599809 -0.12680002 12496554
0.61621672 -0.3061029 -0.12552953 13350584
0.64136809 -0.2794784 -0.046131928 2954816
0.64051753 -0.28041184 -0.046131928 3878968
0.64062953 -0.28302649 -0.047528364 3616046
0.64074332 -0.2831302 -0.046271093 3682346
0.64073843 -0.28438973 -0.047599833 3353385
0.64085239 -0.28449363 -0.04634067 3222819
0.6198619 -0.30714399 -0.1471599 6456211
0.6181491 -0.30634338 -0.14544773 8756392
0.61826479 -0.30644882 -0.14416967 11114399
0.62020999 -0.30746123 -0.14331436 10851222
0.61849624 -0.3066597 -0.14161354 10587794
0.61670333 -0.30676794 -0.15183808 10586510
0.61681902 -0.30687335 -0.15056002 9667471
0.61693472 -0.30697879 -0.14928195 8811137
0.61522478 -0.30617571 -0.14756599 7895155
0.61534017 -0.30628082 -0.1462917 6979484
0.61545551 -0.30638596 -0.14501742 9017030
0.61659974 -0.30705109 -0.14268021 10784928
0.61671525 -0.30715635 -0.14140405 10587545
0.61401397 -0.30680925 -0.15138885 11045782
0.61412936 -0.30691439 -0.15011457 9599638
0.62299412 -0.30650386 -0.1317777 11639964
0.62311018 -0.30660963 -0.13049586 11706796
0.62257701 -0.30748826 -0.13710703 10784663
0.62269324 -0.30759418 -0.13582329 10916249
0.62280941 -0.30770007 -0.13453954 11048086
0.62017345 -0.30644602 -0.13266706 11311251
0.62028915 -0.30655146 -0.13138899 11509408
0.62040484 -0.3066569 -0.13011092 11641006
0.62044209 -0.30767274 -0.14075066 10588047
0.62055814 -0.30777848 -0.1394688 10653330
0.62158966 -0.30833831 -0.13839076 10718869
0.62079024 -0.30798998 -0.1369051 10784405
0.62090629 -0.30809572 -0.13562326 10850709
0.61797607 -0.30792773 -0.13777933 10718868
0.62375039 -0.28435567 -0.11740352 16711422
0.62475681 -0.28741306 -0.11919282 16711422
0.62566596 -0.28911248 -0.12081236 16711422
0.62484187 -0.28878289 -0.11937205 16711422
0.62401748 -0.28845301 -0.11793555 16711422
0.62413132 -0.28855672 -0.11667828 16711422
0.62668365 -0.29092127 -0.12117461 16711422
0.62492442 -0.29015556 -0.11955131 16711422
0.6241014 -0.28982443 -0.11811289 16711422
0.62582541 -0.29186311 -0.12117461 16711422
0.62313294 -0.29065821 -0.11937205 16711422
0.62324697 -0.29076207 -0.11811289 16711422
0.62683547 -0.29368034 -0.12153686 16711422
0.62321293 -0.2920337 -0.11955131 16711422
0.62422329 -0.29385123 -0.11990977 16711422
0.62429678 -0.29523376 -0.12008901 16711422
0.62347955 -0.29489744 -0.11864494 16711422
0.62829447 -0.25776589 -0.1210463 16711422
0.62743562 -0.25746903 -0.11963627 16711422
0.6274631 -0.2586782 -0.1210463 16711422
0.62953281 -0.26079232 -0.12160671 16711422
0.62979138 -0.26343223 -0.12198032 16711422
0.63087994 -0.26516125 -0.12235391 16711422
0.63099205 -0.26526341 -0.12111554 16711422
0.63100147 -0.26648962 -0.1225407 16711422
0.63015175 -0.26618555 -0.12111554 16711422
0.63112044 -0.26782084 -0.12272751 16711422
0.62931138 -0.26710773 -0.12111554 16711422
0.63027757 -0.26874584 -0.12272751 16711422
0.62943465 -0.26967081 -0.12272751 16711422
0.62830281 -0.30628544 -0.13384457 11377804
0.62841958 -0.30639181 -0.13255516 11640711
0.62696093 -0.30682009 -0.13900222 10521232
0.6270777 -0.30692649 -0.13771281 10718863
0.6271944 -0.30703285 -0.13642339 10915982
0.62731111 -0.30713922 -0.13513398 11114634
0.62558788 -0.30634457 -0.13345206 11377542
0.62570429 -0.30645064 -0.13216643 11639704
0.62582064 -0.30655667 -0.13088079 11903402
0.62401712 -0.30666557 -0.14116584 10324875
0.62596923 -0.30767393 -0.14029163 10455951
0.62424988 -0.30687767 -0.13859458 10587027
0.62436628 -0.30698374 -0.13730894 10784403
0.62448269 -0.30708981 -0.13602331 10981779
0.6245991 -0.30719587 -0.13473769 11179664
0.62379676 -0.30685002 -0.13325581 11377548
0.62222832 -0.30717054 -0.14095825 10456460
0.62234455 -0.30727646 -0.13967451 10521489
0.6233775 -0.30783504 -0.13859458 10652822
0.62930316 -0.29074159 -0.12280548 16711422
0.62844229 -0.2916863 -0.12280548 16711422
0.63027197 -0.29383421 -0.12462882 16711422
0.62851679 -0.29306713 -0.12298851 16711422
0.62952262 -0.29488826 -0.12335454 16711422
0.55550176 -0.31747469 -0.45406753 16711422
0.55561727 -0.31757995 -0.45279139 16711422
0.55463576 -0.31842503 -0.45406753 16711422
0.55475128 -0.31853029 -0.45279139 16711422
0.62786293 -0.30686638 -0.14975539 9863566
0.62797999 -0.30697307 -0.14846219 9995156
0.62626058 -0.30618188 -0.14673869 9994906
0.63005102 -0.30808467 -0.14630237 9995922
0.63016844 -0.30819166 -0.14500539 10126730
0.62846643 -0.30840847 -0.15408421 9731716
0.62675124 -0.307616 -0.15234178 9797769
0.62595183 -0.30727279 -0.15082775 9864074
0.62515211 -0.30692929 -0.14931752 9995915
0.62526882 -0.30703568 -0.14802811 10192015
0.62472486 -0.30791479 -0.15470167 9798537
0.62484175 -0.30802134 -0.15341036 9929866
0.62495869 -0.30812785 -0.15211906 9799307
0.6239655 -0.30898291 -0.15341036 10126988
0.63384402 -0.29675815 -0.12812084 14614270
0.6329729 -0.29771408 -0.12812084 14417662
0.63289505 -0.30440131 -0.13294388 10521185
0.63190043 -0.30525762 -0.13423708 10193303
0.63201749 -0.30536431 -0.13294388 9732716
0.63090581 -0.30611393 -0.13553026 10850703
0.63102287 -0.30622062 -0.13423708 10785426
0.63021725 -0.30587944 -0.13274951 10648439
0.6312834 -0.30743983 -0.14241144 10324099
0.62955993 -0.30665019 -0.14070304 10389639
0.62967706 -0.30675688 -0.13940986 10520972
0.62979412 -0.30686358 -0.13811666 10652556
0.62991118 -0.30697024 -0.13682346 10850445
0.62910718 -0.30662799 -0.13533212 11113612
0.63028586 -0.30829865 -0.14370841 10259082
0.62856537 -0.3075065 -0.14199623 10324362
0.62776333 -0.30716345 -0.14049733 10389901
0.631275 -0.29565787 -0.12499864 16711422
0.63620365 -0.26594734 -0.12703137 16711422
0.63631958 -0.26728088 -0.12722383 16711422
0.63631964 -0.26851404 -0.12866791 16711421
0.63547152 -0.26821151 -0.12722383 16711422
0.63643026 -0.26985306 -0.12886228 16711411
0.63558364 -0.26954931 -0.12741631 16711422
0.63749689 -0.27160335 -0.12925099 16580329
0.63569313 -0.27088991 -0.12760878 16645886
0.63664377 -0.27253959 -0.12925099 16513245
0.63484251 -0.27182335 -0.12760879 16580350
0.65667361 -0.25740063 -0.13275625 16697960
0.65678829 -0.25750515 -0.13148952 10643778
0.6602363 -0.25495073 -0.13295439 11575366
0.66035116 -0.25505537 -0.13168578 10064265
0.65937543 -0.25589541 -0.13295439 13674315
0.65949029 -0.25600007 -0.13168578 9530713
0.65753317 -0.25645733 -0.13275625 15183697
0.65764785 -0.25656185 -0.13148952 10054442
0.66538751 -0.25706142 -0.13138899 8538734
0.66550326 -0.25716686 -0.13011092 7688276
0.6635372 -0.25763145 -0.13119462 5399132
0.66463596 -0.25811857 -0.13011092 6510686
0.66671836 -0.25898799 -0.129214 7625567
0.66267121 -0.25858179 -0.13119462 4993865
0.66376865 -0.25907031 -0.13011092 6445929
0.6668306 -0.26032591 -0.12940459 7890533
0.66694683 -0.2604318 -0.12812084 7102050
0.66871405 -0.30669764 -0.15092397 8678777
0.66730917 -0.30725741 -0.15632363 8876652
0.66743135 -0.30736879 -0.1549737 8876655
0.66661865 -0.30704951 -0.15340863 8876658
0.66674066 -0.30716074 -0.15206061 8877429
0.66499209 -0.30641001 -0.15028983 8878968
0.66590428 -0.30781719 -0.16172327 9206147
0.6678921 -0.3087911 -0.16082257 9140862
0.66614872 -0.30803993 -0.15902345 9140346
0.66627091 -0.30815127 -0.15767354 9139829
0.66545981 -0.30783093 -0.15610468 9139569
0.66558188 -0.30794215 -0.15475667 9205105
0.66498828 -0.30882242 -0.16172327 9402754
0.66511047 -0.30893379 -0.16037336 9271935
0.66523266 -0.30904517 -0.15902345 9337724
0.66442305 -0.30872354 -0.1574527 9403259
0.67139685 -0.26747629 -0.12833151 7496544
0.66953945 -0.26805276 -0.12814471 6831943
0.66865939 -0.26901856 -0.12814471 11762990
0.66777927 -0.26998436 -0.12814471 16704150
0.65177673 -0.29490075 -0.39203876 14339569
0.65190047 -0.29501352 -0.39067185 15529982
0.65202427 -0.29512629 -0.38930491 16711422
0.67370403 -0.3072724 -0.15877768 8746355
0.67382705 -0.30738455 -0.15741833 8614766
0.67207539 -0.30664134 -0.15562485 8549488
0.67219812 -0.30675319 -0.15426926 8482930
0.67232084 -0.30686501 -0.15291367 8417394
0.67253542 -0.30806038 -0.16149642 9009273
0.6726585 -0.30817252 -0.16013706 8877685
0.67091012 -0.30742714 -0.15833601 8811630
0.67103285 -0.30753896 -0.15698044 8746087
0.67021948 -0.30722171 -0.1554078 8680557
0.67034203 -0.30733338 -0.15405411 8679796
0.67046458 -0.30744508 -0.15270041 8614006
0.66868812 -0.30767137 -0.16217627 9009536
0.66974479 -0.30821291 -0.16104719 9009532
0.66986752 -0.30832475 -0.1596916 8942967
0.66905582 -0.30800641 -0.15811518 8942961
0.67456549 -0.30805743 -0.14926213 8546169
0.67281175 -0.30731234 -0.14749134 8612471
0.67293447 -0.30742419 -0.14613576 8745589
0.67493469 -0.30839387 -0.14518403 8943478
0.67317992 -0.30764785 -0.14342459 9141111
0.67236364 -0.30733043 -0.14187087 9401965
0.67248619 -0.3074421 -0.14051718 7825507
0.67351997 -0.30895755 -0.15062149 8678266
0.67364305 -0.30906969 -0.14926213 8744059
0.67095482 -0.30789179 -0.14728564 8810104
0.67823529 -0.25336635 -0.12352927 10974051
0.678352 -0.25347272 -0.12223986 10714201
0.6782366 -0.2545929 -0.1250017 9604478
0.6773603 -0.25432655 -0.12352927 9464674
0.67747706 -0.25443292 -0.12223986 9402705
0.6773603 -0.2555545 -0.1250017 7957103
0.67759413 -0.25576755 -0.12241909 8151899
0.67901427 -0.30611861 -0.14130218 7884359
0.67913747 -0.3062309 -0.13994093 6833565
0.67935628 -0.3074224 -0.14851987 8350066
0.67972702 -0.30776024 -0.14442477 8810357
0.67985058 -0.30787286 -0.14305973 9073252
0.67997414 -0.30798545 -0.14169469 7756627
0.67821378 -0.3072446 -0.13994093 6435234
0.67536485 -0.30693299 -0.15062149 8416368
0.67548794 -0.30704513 -0.14926212 8415351
0.67561096 -0.30715728 -0.14790276 8480374
0.67573404 -0.30726942 -0.1465434 8613494
0.67867714 -0.30866414 -0.14578982 8745848
0.67598021 -0.30749372 -0.14382465 8941946
0.67610323 -0.30760586 -0.14246529 9203820
0.67622632 -0.30771801 -0.14110593 7758175
0.67538041 -0.30837357 -0.15083097 8547189
0.6839152 -0.30654526 -0.1505077 7958134
0.68215233 -0.30581239 -0.14872558 8154737
0.68416339 -0.3067714 -0.14776628 8285805
0.68428749 -0.3068845 -0.14639558 8482926
0.68252355 -0.3061507 -0.1446248 8615280
0.68453568 -0.30711064 -0.14365415 8812117
0.68277109 -0.30637622 -0.14189094 8012091
0.68110102 -0.30671751 -0.15009251 8154228
0.68028253 -0.3064059 -0.14851987 8220269
0.68323326 -0.30779213 -0.14776628 8351079
0.68147224 -0.30705583 -0.14599173 8482155
0.68065327 -0.30674374 -0.14442477 8680048
0.68077689 -0.30685636 -0.14305973 8942939
0.6801734 -0.30773541 -0.15009251 8284533
0.68042094 -0.30796096 -0.14735866 8415854
0.68054467 -0.30807373 -0.14599173 8547441
0.68873781 -0.30587739 -0.14975412 8417399
0.68696988 -0.30515027 -0.1479701 8548468
0.68709415 -0.30526352 -0.14659749 8745588
0.68721843 -0.30537677 -0.1452249 8878452
0.6873427 -0.30548999 -0.14385229 9009497
0.68936086 -0.30644512 -0.14287221 8145214
0.68948543 -0.3065587 -0.14149582 7296670
0.68591422 -0.30605915 -0.14934269 8285558
0.68603849 -0.3061724 -0.1479701 8417139
0.68616277 -0.30628565 -0.14659749 8614770
0.68534172 -0.30597687 -0.14502487 8746865
0.68546581 -0.30608994 -0.14365415 8878160
0.68558991 -0.30620301 -0.14228344 8078639
0.68571401 -0.30631611 -0.14091274 7230102
0.6858381 -0.30642918 -0.13954203 11992830
0.68478388 -0.30733681 -0.14091274 7228314
0.68490797 -0.30744991 -0.13954203 11992825
0.69190162 -0.25636628 -0.11504 8875358
0.69202024 -0.25647438 -0.11372979 8481635
0.6910125 -0.25734195 -0.11504 8743015
0.69212842 -0.25782153 -0.1138939 8613229
0.723086 -0.29506555 -0.52013594 16711422
0.72322136 -0.29518893 -0.51864046 16711422
